-1.325 19.962 -0.131 248
-1.326 19.964 -0.134 292
-1.326 19.964 -0.131 280
-1.325 19.965 -0.132 254
-1.324 19.965 -0.132 242
-1.32 19.96 -0.131 254
-1.321 19.962 -0.135 185
-1.322 19.965 -0.138 267
-1.322 19.965 -0.137 229
-1.321 19.965 -0.137 216
-1.322 19.964 -0.135 185
-1.321 19.965 -0.136 191
-1.319 19.964 -0.138 216
-1.322 19.963 -0.133 204
-1.322 19.963 -0.131 261
-1.32 19.965 -0.133 197
-1.32 19.965 -0.132 210
-1.326 19.963 -0.13 254
-1.325 19.962 -0.129 318
-1.326 19.962 -0.128 299
-1.325 19.964 -0.13 280
-1.325 19.965 -0.124 197
-1.323 19.964 -0.126 216
-1.323 19.965 -0.124 178
-1.322 19.964 -0.13 305
-1.321 19.964 -0.13 305
-1.322 19.964 -0.128 318
-1.321 19.965 -0.128 280
-1.319 19.962 -0.129 261
-1.32 19.964 -0.128 292
-1.322 19.965 -0.125 223
-1.32 19.962 -0.124 248
-1.32 19.963 -0.123 261
-1.32 19.965 -0.126 280
-1.32 19.965 -0.125 261
-1.319 19.965 -0.123 280
-1.326 19.967 -0.136 273
-1.326 19.969 -0.138 248
-1.326 19.968 -0.136 254
-1.324 19.966 -0.138 280
-1.324 19.967 -0.138 273
-1.323 19.966 -0.138 235
-1.324 19.967 -0.136 204
-1.324 19.969 -0.136 210
-1.326 19.967 -0.133 267
-1.326 19.968 -0.134 273
-1.324 19.967 -0.134 235
-1.324 19.966 -0.131 242
-1.324 19.967 -0.131 286
-1.323 19.968 -0.134 197
-1.325 19.97 -0.135 235
-1.325 19.97 -0.133 229
-1.324 19.97 -0.133 223
-1.324 19.973 -0.132 229
-1.321 19.967 -0.138 223
-1.321 19.967 -0.135 204
-1.321 19.968 -0.138 235
-1.321 19.968 -0.136 216
-1.32 19.966 -0.138 216
-1.32 19.967 -0.136 216
-1.319 19.967 -0.136 216
-1.319 19.969 -0.137 210
-1.319 19.968 -0.136 210
-1.322 19.966 -0.132 210
-1.322 19.968 -0.134 204
-1.322 19.968 -0.132 235
-1.322 19.968 -0.131 267
-1.32 19.966 -0.134 172
-1.32 19.967 -0.133 185
-1.32 19.966 -0.132 216
-1.319 19.967 -0.132 178
-1.32 19.969 -0.134 172
-1.319 19.968 -0.134 178
-1.32 19.968 -0.131 242
-1.319 19.969 -0.131 210
-1.322 19.97 -0.138 229
-1.322 19.97 -0.133 223
-1.325 19.966 -0.127 305
-1.325 19.968 -0.13 273
-1.324 19.966 -0.129 311
-1.323 19.966 -0.13 305
-1.323 19.967 -0.129 305
-1.324 19.966 -0.128 305
-1.324 19.966 -0.127 299
-1.326 19.968 -0.126 235
-1.325 19.969 -0.126 273
-1.324 19.967 -0.125 248
-1.324 19.966 -0.124 185
-1.324 19.966 -0.123 172
-1.323 19.968 -0.123 216
-1.324 19.97 -0.128 299
-1.323 19.971 -0.126 248
-1.324 19.971 -0.124 178
-1.322 19.966 -0.129 318
-1.321 19.966 -0.129 292
-1.321 19.967 -0.13 267
-1.322 19.966 -0.127 311
-1.321 19.966 -0.128 311
-1.319 19.967 -0.13 229
-1.319 19.967 -0.129 235
-1.32 19.966 -0.127 286
-1.319 19.967 -0.127 273
-1.32 19.969 -0.13 254
-1.32 19.969 -0.128 267
-1.322 19.967 -0.126 229
-1.322 19.967 -0.124 197
-1.321 19.966 -0.123 242
-1.322 19.968 -0.126 229
-1.322 19.968 -0.125 216
-1.32 19.966 -0.125 267
-1.32 19.967 -0.126 280
-1.319 19.969 -0.126 273
-1.32 19.968 -0.123 286
-1.319 19.968 -0.124 280
-1.321 19.97 -0.126 267
-1.317 19.96 -0.136 185
-1.315 19.963 -0.136 223
-1.316 19.964 -0.138 204
-1.318 19.965 -0.133 159
-1.317 19.965 -0.131 210
-1.314 19.964 -0.138 204
-1.311 19.964 -0.138 254
-1.314 19.965 -0.133 223
-1.311 19.964 -0.132 267
-1.318 19.961 -0.128 273
-1.317 19.964 -0.129 242
-1.315 19.965 -0.127 185
-1.318 19.965 -0.125 286
-1.317 19.965 -0.123 261
-1.315 19.963 -0.124 229
-1.316 19.964 -0.124 223
-1.312 19.964 -0.127 242
-1.314 19.965 -0.126 197
-1.313 19.965 -0.126 248
-1.314 19.964 -0.124 229
-1.314 19.964 -0.123 254
-1.312 19.965 -0.125 299
-1.317 19.966 -0.138 216
-1.316 19.966 -0.138 223
-1.316 19.969 -0.138 216
-1.318 19.967 -0.134 166
-1.317 19.966 -0.134 166
-1.317 19.966 -0.132 178
-1.317 19.968 -0.134 204
-1.316 19.966 -0.133 185
-1.315 19.966 -0.134 223
-1.316 19.967 -0.132 204
-1.316 19.967 -0.131 191
-1.316 19.969 -0.133 210
-1.315 19.968 -0.134 223
-1.318 19.97 -0.137 197
-1.317 19.97 -0.136 197
-1.317 19.973 -0.135 197
-1.316 19.97 -0.138 210
-1.315 19.971 -0.137 204
-1.316 19.972 -0.136 216
-1.317 19.97 -0.131 185
-1.317 19.971 -0.132 185
-1.318 19.973 -0.133 166
-1.315 19.97 -0.132 216
-1.315 19.973 -0.131 210
-1.313 19.966 -0.138 223
-1.313 19.966 -0.137 242
-1.313 19.967 -0.137 254
-1.314 19.966 -0.136 216
-1.313 19.967 -0.136 235
-1.314 19.968 -0.137 229
-1.313 19.969 -0.138 261
-1.312 19.969 -0.137 254
-1.312 19.968 -0.135 286
-1.313 19.966 -0.134 229
-1.313 19.966 -0.131 248
-1.313 19.969 -0.134 242
-1.313 19.968 -0.132 254
-1.312 19.967 -0.134 286
-1.312 19.969 -0.133 286
-1.311 19.969 -0.133 330
-1.311 19.968 -0.131 311
-1.314 19.971 -0.135 223
-1.313 19.971 -0.135 235
-1.311 19.97 -0.138 280
-1.312 19.97 -0.136 267
-1.311 19.97 -0.136 299
-1.314 19.97 -0.133 229
-1.313 19.97 -0.133 242
-1.312 19.971 -0.131 261
-1.317 19.966 -0.13 210
-1.317 19.966 -0.128 261
-1.317 19.968 -0.13 197
-1.317 19.968 -0.129 216
-1.317 19.968 -0.127 229
-1.316 19.967 -0.13 172
-1.316 19.968 -0.129 178
-1.317 19.966 -0.126 254
-1.317 19.966 -0.125 273
-1.318 19.966 -0.123 280
-1.317 19.969 -0.125 216
-1.317 19.968 -0.123 235
-1.316 19.966 -0.126 229
-1.316 19.967 -0.124 216
-1.316 19.968 -0.126 197
-1.317 19.97 -0.128 223
-1.315 19.97 -0.129 172
-1.315 19.97 -0.127 185
-1.318 19.97 -0.126 261
-1.314 19.966 -0.13 185
-1.314 19.967 -0.129 204
-1.314 19.967 -0.128 185
-1.313 19.967 -0.128 235
-1.314 19.968 -0.13 204
-1.313 19.968 -0.13 242
-1.313 19.968 -0.129 229
-1.312 19.967 -0.13 248
-1.312 19.967 -0.129 261
-1.312 19.966 -0.128 280
-1.311 19.967 -0.127 324
-1.311 19.968 -0.129 292
-1.311 19.968 -0.128 299
-1.314 19.966 -0.125 216
-1.313 19.967 -0.124 362
-1.314 19.968 -0.126 242
-1.313 19.969 -0.126 280
-1.314 19.968 -0.124 273
-1.314 19.969 -0.124 292
-1.313 19.968 -0.123 381
-1.312 19.966 -0.126 356
-1.312 19.966 -0.123 533
-1.311 19.966 -0.123 514
-1.312 19.969 -0.126 337
-1.312 19.97 -0.125 413
-1.324 19.961 -0.12 248
-1.326 19.962 -0.122 197
-1.324 19.964 -0.122 191
-1.324 19.965 -0.119 261
-1.323 19.964 -0.119 261
-1.326 19.964 -0.117 337
-1.324 19.962 -0.117 330
-1.323 19.964 -0.118 299
-1.323 19.964 -0.117 311
-1.324 19.964 -0.115 311
-1.324 19.965 -0.116 311
-1.323 19.965 -0.116 311
-1.321 19.963 -0.121 261
-1.322 19.962 -0.12 261
-1.321 19.963 -0.119 299
-1.32 19.964 -0.12 280
-1.32 19.965 -0.119 330
-1.322 19.963 -0.117 305
-1.321 19.963 -0.117 324
-1.322 19.964 -0.118 292
-1.322 19.965 -0.116 324
-1.321 19.964 -0.116 299
-1.32 19.964 -0.118 330
-1.319 19.964 -0.117 311
-1.319 19.965 -0.118 292
-1.326 19.962 -0.113 267
-1.325 19.965 -0.114 286
-1.326 19.965 -0.112 286
-1.323 19.962 -0.114 299
-1.324 19.965 -0.114 305
-1.323 19.964 -0.113 299
-1.323 19.963 -0.107 635
-1.322 19.963 -0.113 324
-1.321 19.963 -0.114 343
-1.321 19.962 -0.112 413
-1.322 19.964 -0.114 286
-1.322 19.964 -0.111 406
-1.32 19.964 -0.113 387
-1.32 19.964 -0.112 425
-1.321 19.965 -0.109 723
-1.321 19.964 -0.107 914
-1.319 19.963 -0.11 692
-1.32 19.963 -0.108 850
-1.319 19.965 -0.11 730
-1.325 19.966 -0.122 191
-1.326 19.966 -0.119 242
-1.326 19.967 -0.119 286
-1.326 19.969 -0.121 248
-1.324 19.967 -0.122 204
-1.324 19.967 -0.121 261
-1.323 19.966 -0.119 273
-1.324 19.969 -0.122 235
-1.323 19.969 -0.119 261
-1.325 19.966 -0.118 349
-1.326 19.967 -0.115 286
-1.326 19.968 -0.117 324
-1.326 19.968 -0.116 292
-1.324 19.966 -0.118 292
-1.323 19.966 -0.115 305
-1.323 19.968 -0.115 305
-1.322 19.966 -0.122 235
-1.322 19.967 -0.121 248
-1.321 19.966 -0.122 273
-1.321 19.967 -0.121 261
-1.322 19.969 -0.119 318
-1.32 19.966 -0.121 280
-1.32 19.967 -0.12 292
-1.319 19.967 -0.12 267
-1.32 19.968 -0.121 286
-1.319 19.968 -0.121 273
-1.319 19.969 -0.122 280
-1.321 19.966 -0.117 324
-1.321 19.966 -0.115 292
-1.321 19.967 -0.116 330
-1.32 19.966 -0.118 299
-1.32 19.966 -0.115 318
-1.319 19.966 -0.116 318
-1.319 19.966 -0.115 368
-1.32 19.969 -0.116 324
-1.325 19.966 -0.113 305
-1.326 19.967 -0.112 292
-1.325 19.969 -0.113 311
-1.326 19.969 -0.111 305
-1.325 19.968 -0.112 311
-1.324 19.966 -0.111 318
-1.323 19.966 -0.111 419
-1.324 19.968 -0.112 349
-1.326 19.967 -0.109 318
-1.326 19.966 -0.107 299
-1.325 19.966 -0.107 349
-1.326 19.969 -0.109 324
-1.326 19.968 -0.108 330
-1.325 19.968 -0.108 425
-1.324 19.966 -0.11 356
-1.323 19.966 -0.109 489
-1.324 19.966 -0.108 419
-1.323 19.966 -0.108 584
-1.321 19.966 -0.114 324
-1.322 19.967 -0.112 375
-1.321 19.966 -0.112 400
-1.321 19.967 -0.111 489
-1.322 19.968 -0.111 489
-1.32 19.966 -0.114 400
-1.32 19.967 -0.113 482
-1.319 19.967 -0.114 444
-1.32 19.966 -0.112 559
-1.319 19.969 -0.113 521
-1.319 19.968 -0.112 540
-1.322 19.966 -0.11 476
-1.321 19.967 -0.109 635
-1.322 19.966 -0.108 673
-1.321 19.966 -0.107 964
-1.321 19.969 -0.11 540
-1.319 19.966 -0.11 717
-1.32 19.966 -0.108 850
-1.32 19.967 -0.107 869
-1.319 19.967 -0.108 850
-1.32 19.968 -0.109 837
-1.317 19.961 -0.118 267
-1.318 19.965 -0.119 267
-1.315 19.965 -0.119 311
-1.318 19.963 -0.118 273
-1.318 19.965 -0.117 286
-1.316 19.965 -0.117 362
-1.315 19.964 -0.117 489
-1.315 19.965 -0.118 387
-1.315 19.964 -0.115 730
-1.314 19.965 -0.122 261
-1.313 19.964 -0.122 330
-1.313 19.964 -0.12 387
-1.312 19.963 -0.121 482
-1.312 19.964 -0.122 419
-1.311 19.965 -0.121 603
-1.312 19.964 -0.119 508
-1.313 19.963 -0.115 964
-1.314 19.964 -0.118 387
-1.313 19.965 -0.118 514
-1.311 19.964 -0.118 825
-1.318 19.964 -0.111 641
-1.316 19.964 -0.114 609
-1.316 19.965 -0.112 736
-1.315 19.965 -0.112 920
-1.318 19.965 -0.109 818
-1.317 19.965 -0.11 837
-1.317 19.964 -0.108 837
-1.316 19.964 -0.11 787
-1.313 19.964 -0.114 977
-1.314 19.964 -0.111 1078
-1.313 19.965 -0.112 1002
-1.311 19.965 -0.114 958
-1.311 19.965 -0.111 964
-1.314 19.965 -0.107 1009
-1.312 19.965 -0.109 1104
-1.311 19.964 -0.109 1002
-1.311 19.965 -0.109 1116
-1.317 19.966 -0.121 242
-1.317 19.967 -0.121 242
-1.318 19.967 -0.12 248
-1.318 19.968 -0.121 248
-1.317 19.968 -0.122 248
-1.317 19.968 -0.119 254
-1.316 19.967 -0.122 223
-1.315 19.966 -0.121 229
-1.316 19.967 -0.12 235
-1.315 19.967 -0.119 267
-1.317 19.966 -0.118 273
-1.317 19.966 -0.116 406
-1.318 19.968 -0.117 324
-1.318 19.968 -0.115 495
-1.316 19.967 -0.118 292
-1.316 19.966 -0.116 476
-1.316 19.967 -0.116 628
-1.316 19.967 -0.115 527
-1.316 19.971 -0.122 235
-1.314 19.966 -0.121 273
-1.314 19.966 -0.12 273
-1.314 19.966 -0.119 305
-1.313 19.967 -0.12 425
-1.313 19.969 -0.12 489
-1.312 19.966 -0.119 660
-1.311 19.967 -0.119 774
-1.311 19.968 -0.122 616
-1.311 19.968 -0.121 711
-1.314 19.967 -0.117 508
-1.313 19.966 -0.118 546
-1.313 19.966 -0.117 647
-1.314 19.967 -0.116 647
-1.314 19.967 -0.115 837
-1.313 19.966 -0.116 856
-1.313 19.968 -0.118 628
-1.313 19.968 -0.117 730
-1.312 19.966 -0.117 850
-1.312 19.966 -0.116 888
-1.312 19.966 -0.115 1104
-1.311 19.967 -0.116 990
-1.312 19.968 -0.116 1072
-1.314 19.97 -0.122 337
-1.317 19.966 -0.111 730
-1.317 19.967 -0.112 609
-1.316 19.967 -0.113 831
-1.315 19.966 -0.114 761
-1.316 19.966 -0.111 774
-1.315 19.967 -0.111 933
-1.318 19.967 -0.109 850
-1.316 19.966 -0.109 894
-1.315 19.966 -0.109 952
-1.316 19.966 -0.108 894
-1.316 19.966 -0.107 888
-1.315 19.966 -0.108 920
-1.315 19.966 -0.107 926
-1.318 19.97 -0.114 552
-1.317 19.97 -0.113 704
-1.314 19.967 -0.114 894
-1.314 19.967 -0.113 914
-1.313 19.966 -0.113 958
-1.313 19.967 -0.114 1085
-1.314 19.967 -0.112 926
-1.313 19.966 -0.111 1091
-1.313 19.967 -0.112 952
-1.312 19.966 -0.113 894
-1.312 19.966 -0.112 920
-1.311 19.968 -0.114 1116
-1.311 19.968 -0.113 939
-1.311 19.969 -0.111 882
-1.314 19.966 -0.11 1091
-1.314 19.967 -0.109 1110
-1.313 19.966 -0.11 1154
-1.313 19.967 -0.109 1186
-1.313 19.967 -0.108 1129
-1.313 19.967 -0.107 1097
-1.314 19.968 -0.108 1148
-1.312 19.966 -0.11 1097
-1.311 19.967 -0.11 914
-1.312 19.966 -0.108 1142
-1.312 19.967 -0.107 1205
-1.311 19.967 -0.107 1186
-1.312 19.968 -0.108 1186
-1.31 19.964 -0.135 311
-1.31 19.965 -0.134 343
-1.309 19.964 -0.134 368
-1.31 19.965 -0.132 330
-1.307 19.963 -0.133 406
-1.308 19.965 -0.132 381
-1.307 19.965 -0.131 394
-1.303 19.964 -0.136 311
-1.306 19.965 -0.133 375
-1.305 19.965 -0.134 343
-1.305 19.965 -0.133 337
-1.304 19.965 -0.134 324
-1.304 19.964 -0.131 406
-1.31 19.964 -0.13 299
-1.308 19.963 -0.127 419
-1.307 19.964 -0.13 400
-1.31 19.965 -0.126 381
-1.309 19.964 -0.125 457
-1.307 19.964 -0.124 882
-1.303 19.965 -0.127 1066
-1.304 19.964 -0.126 958
-1.303 19.964 -0.125 1142
-1.303 19.965 -0.124 1211
-1.31 19.966 -0.137 286
-1.31 19.967 -0.135 349
-1.31 19.968 -0.138 324
-1.309 19.968 -0.138 280
-1.309 19.969 -0.136 375
-1.308 19.966 -0.138 292
-1.307 19.966 -0.138 305
-1.307 19.966 -0.137 356
-1.308 19.969 -0.135 387
-1.309 19.966 -0.133 356
-1.31 19.967 -0.132 356
-1.31 19.967 -0.131 324
-1.309 19.968 -0.133 387
-1.307 19.966 -0.134 394
-1.308 19.967 -0.131 387
-1.307 19.967 -0.132 394
-1.308 19.968 -0.134 387
-1.307 19.968 -0.134 375
-1.307 19.968 -0.131 406
-1.31 19.97 -0.137 349
-1.309 19.971 -0.135 387
-1.305 19.966 -0.137 318
-1.306 19.966 -0.136 330
-1.306 19.967 -0.136 311
-1.306 19.968 -0.138 292
-1.306 19.968 -0.137 299
-1.305 19.969 -0.138 292
-1.306 19.968 -0.135 337
-1.305 19.969 -0.136 318
-1.305 19.969 -0.135 318
-1.304 19.966 -0.138 311
-1.303 19.966 -0.135 318
-1.304 19.969 -0.138 286
-1.303 19.968 -0.138 280
-1.304 19.969 -0.135 305
-1.303 19.968 -0.136 305
-1.305 19.966 -0.131 400
-1.305 19.967 -0.132 368
-1.305 19.968 -0.133 330
-1.306 19.968 -0.132 394
-1.303 19.967 -0.133 368
-1.303 19.968 -0.134 330
-1.303 19.968 -0.133 394
-1.303 19.969 -0.134 349
-1.304 19.968 -0.132 400
-1.305 19.97 -0.132 368
-1.309 19.966 -0.13 318
-1.309 19.966 -0.127 387
-1.31 19.969 -0.129 324
-1.309 19.969 -0.129 381
-1.308 19.967 -0.128 394
-1.308 19.968 -0.13 368
-1.307 19.969 -0.13 413
-1.308 19.968 -0.128 413
-1.308 19.969 -0.127 521
-1.307 19.968 -0.128 470
-1.31 19.966 -0.125 444
-1.31 19.966 -0.124 489
-1.31 19.967 -0.124 565
-1.309 19.969 -0.124 698
-1.308 19.966 -0.125 540
-1.308 19.967 -0.126 489
-1.307 19.967 -0.125 704
-1.308 19.968 -0.123 818
-1.305 19.966 -0.129 521
-1.306 19.966 -0.127 521
-1.305 19.966 -0.127 749
-1.305 19.967 -0.127 711
-1.306 19.968 -0.129 413
-1.306 19.969 -0.13 419
-1.305 19.969 -0.13 470
-1.303 19.966 -0.13 527
-1.304 19.966 -0.128 730
-1.304 19.967 -0.127 920
-1.303 19.966 -0.128 882
-1.304 19.968 -0.13 476
-1.304 19.968 -0.129 679
-1.303 19.969 -0.13 578
-1.303 19.969 -0.128 831
-1.306 19.967 -0.126 584
-1.306 19.967 -0.125 787
-1.305 19.967 -0.125 920
-1.306 19.967 -0.124 983
-1.306 19.967 -0.123 1097
-1.305 19.967 -0.124 1142
-1.305 19.968 -0.124 1142
-1.305 19.968 -0.123 1199
-1.304 19.967 -0.125 990
-1.305 19.97 -0.129 552
-1.303 19.97 -0.123 1249
-1.302 19.965 -0.131 476
-1.299 19.965 -0.131 761
-1.298 19.963 -0.135 337
-1.298 19.965 -0.137 311
-1.297 19.965 -0.136 330
-1.296 19.965 -0.134 451
-1.302 19.965 -0.129 723
-1.299 19.965 -0.129 1129
-1.299 19.964 -0.128 1192
-1.299 19.965 -0.125 1275
-1.297 19.963 -0.13 926
-1.302 19.966 -0.138 292
-1.301 19.967 -0.136 292
-1.302 19.969 -0.138 286
-1.301 19.969 -0.138 299
-1.301 19.969 -0.137 299
-1.301 19.969 -0.135 305
-1.3 19.968 -0.137 292
-1.299 19.969 -0.138 311
-1.302 19.967 -0.133 432
-1.302 19.967 -0.132 451
-1.302 19.967 -0.131 609
-1.301 19.966 -0.132 521
-1.302 19.968 -0.134 375
-1.302 19.969 -0.134 349
-1.301 19.969 -0.134 330
-1.299 19.967 -0.134 375
-1.299 19.967 -0.133 489
-1.3 19.966 -0.132 521
-1.3 19.967 -0.131 654
-1.299 19.967 -0.132 578
-1.299 19.967 -0.131 654
-1.3 19.968 -0.133 406
-1.299 19.968 -0.132 597
-1.3 19.97 -0.136 305
-1.3 19.971 -0.134 368
-1.299 19.97 -0.133 501
-1.297 19.966 -0.138 311
-1.298 19.966 -0.136 311
-1.298 19.969 -0.138 324
-1.297 19.969 -0.137 330
-1.296 19.967 -0.137 324
-1.295 19.966 -0.138 318
-1.296 19.968 -0.138 330
-1.296 19.968 -0.135 444
-1.297 19.967 -0.134 413
-1.297 19.966 -0.132 704
-1.297 19.967 -0.131 806
-1.298 19.969 -0.133 584
-1.297 19.969 -0.131 869
-1.296 19.966 -0.133 616
-1.295 19.967 -0.134 635
-1.296 19.967 -0.132 768
-1.295 19.967 -0.132 977
-1.295 19.967 -0.131 977
-1.295 19.968 -0.133 894
-1.295 19.969 -0.134 641
-1.295 19.969 -0.132 1116
-1.295 19.971 -0.138 343
-1.296 19.972 -0.136 368
-1.295 19.97 -0.133 882
-1.302 19.967 -0.127 1078
-1.301 19.966 -0.128 1091
-1.302 19.968 -0.13 742
-1.302 19.968 -0.129 882
-1.3 19.967 -0.13 812
-1.3 19.967 -0.129 952
-1.299 19.966 -0.13 952
-1.299 19.967 -0.129 933
-1.3 19.967 -0.127 1167
-1.3 19.968 -0.128 1116
-1.299 19.968 -0.127 1129
-1.302 19.966 -0.125 1180
-1.302 19.967 -0.126 1142
-1.301 19.966 -0.126 1192
-1.301 19.967 -0.125 1243
-1.302 19.966 -0.124 1249
-1.301 19.966 -0.123 1211
-1.301 19.968 -0.124 1230
-1.3 19.967 -0.125 1268
-1.299 19.967 -0.126 1256
-1.3 19.966 -0.123 1211
-1.299 19.966 -0.123 1211
-1.299 19.967 -0.123 1218
-1.3 19.968 -0.126 1249
-1.299 19.968 -0.125 1281
-1.299 19.968 -0.123 1167
-1.299 19.969 -0.124 1256
-1.297 19.966 -0.129 952
-1.298 19.966 -0.128 1085
-1.298 19.968 -0.128 977
-1.296 19.966 -0.129 1009
-1.296 19.967 -0.13 971
-1.295 19.966 -0.13 1104
-1.296 19.967 -0.127 1002
-1.295 19.967 -0.127 958
-1.296 19.968 -0.129 971
-1.296 19.968 -0.128 983
-1.295 19.969 -0.127 920
-1.298 19.967 -0.126 1167
-1.297 19.967 -0.126 1230
-1.298 19.968 -0.126 1154
-1.297 19.968 -0.125 1268
-1.298 19.968 -0.123 1186
-1.296 19.967 -0.124 1135
-1.295 19.967 -0.124 977
-1.295 19.967 -0.123 1066
-1.296 19.968 -0.126 1123
-1.296 19.968 -0.125 1173
-1.296 19.969 -0.126 977
-1.297 19.97 -0.123 1142
-1.309 19.965 -0.122 736
-1.308 19.965 -0.122 869
-1.307 19.965 -0.121 933
-1.31 19.965 -0.117 952
-1.307 19.965 -0.117 1275
-1.309 19.965 -0.113 914
-1.31 19.965 -0.112 869
-1.309 19.965 -0.111 933
-1.308 19.965 -0.114 1319
-1.308 19.965 -0.111 869
-1.307 19.965 -0.109 964
-1.307 19.965 -0.108 1104
-1.306 19.965 -0.112 1104
-1.303 19.965 -0.112 1104
-1.306 19.965 -0.11 907
-1.306 19.965 -0.109 945
-1.305 19.964 -0.11 1091
-1.305 19.965 -0.11 1009
-1.305 19.965 -0.108 983
-1.303 19.964 -0.109 1173
-1.303 19.965 -0.11 1154
-1.309 19.966 -0.121 787
-1.309 19.967 -0.122 704
-1.309 19.966 -0.119 920
-1.308 19.967 -0.121 875
-1.307 19.966 -0.122 907
-1.308 19.966 -0.119 933
-1.308 19.967 -0.12 875
-1.307 19.967 -0.119 1078
-1.307 19.968 -0.122 901
-1.31 19.966 -0.118 844
-1.309 19.966 -0.117 1116
-1.31 19.966 -0.115 1116
-1.31 19.967 -0.116 1167
-1.309 19.966 -0.115 1205
-1.309 19.969 -0.115 1364
-1.308 19.967 -0.118 1167
-1.308 19.967 -0.117 1230
-1.308 19.967 -0.116 1262
-1.307 19.966 -0.115 1440
-1.307 19.967 -0.116 1332
-1.307 19.97 -0.115 1427
-1.306 19.966 -0.122 1078
-1.306 19.967 -0.121 1009
-1.305 19.967 -0.122 1142
-1.306 19.966 -0.12 1066
-1.306 19.966 -0.119 1116
-1.305 19.966 -0.12 1116
-1.305 19.967 -0.12 1135
-1.305 19.968 -0.12 1161
-1.304 19.967 -0.122 1211
-1.304 19.967 -0.121 1161
-1.303 19.967 -0.122 1218
-1.303 19.966 -0.12 1142
-1.303 19.967 -0.12 1142
-1.304 19.968 -0.119 1148
-1.303 19.968 -0.12 1129
-1.306 19.966 -0.117 1319
-1.306 19.967 -0.118 1167
-1.305 19.966 -0.118 1180
-1.306 19.966 -0.116 1402
-1.305 19.967 -0.115 1319
-1.306 19.969 -0.117 1319
-1.305 19.968 -0.118 1199
-1.305 19.968 -0.116 1180
-1.304 19.967 -0.118 1167
-1.303 19.966 -0.118 1123
-1.303 19.967 -0.118 1129
-1.304 19.966 -0.115 1287
-1.304 19.967 -0.116 1275
-1.303 19.967 -0.115 1306
-1.304 19.968 -0.117 1199
-1.303 19.968 -0.118 1116
-1.304 19.97 -0.122 1173
-1.309 19.967 -0.114 1167
-1.309 19.966 -0.112 875
-1.308 19.967 -0.113 1002
-1.307 19.967 -0.114 1249
-1.307 19.967 -0.113 1072
-1.308 19.967 -0.112 920
-1.307 19.966 -0.111 850
-1.307 19.967 -0.111 882
-1.31 19.966 -0.109 1078
-1.309 19.967 -0.109 983
-1.309 19.966 -0.107 1123
-1.309 19.967 -0.108 1116
-1.31 19.969 -0.109 1110
-1.308 19.966 -0.109 983
-1.307 19.966 -0.109 939
-1.308 19.967 -0.107 1085
-1.307 19.966 -0.107 1123
-1.308 19.968 -0.11 875
-1.308 19.97 -0.114 1345
-1.306 19.966 -0.114 1326
-1.306 19.967 -0.113 1148
-1.305 19.966 -0.114 1345
-1.305 19.967 -0.113 1243
-1.306 19.967 -0.111 945
-1.306 19.968 -0.112 1148
-1.304 19.966 -0.113 1249
-1.303 19.966 -0.114 1262
-1.303 19.966 -0.113 1192
-1.304 19.966 -0.112 1199
-1.304 19.967 -0.111 1142
-1.304 19.968 -0.114 1326
-1.303 19.968 -0.112 1097
-1.303 19.968 -0.111 933
-1.305 19.966 -0.109 958
-1.306 19.967 -0.108 996
-1.305 19.969 -0.107 1104
-1.304 19.966 -0.11 1129
-1.304 19.966 -0.109 1097
-1.303 19.966 -0.11 1142
-1.304 19.967 -0.108 1078
-1.303 19.967 -0.107 1281
-1.304 19.968 -0.107 1237
-1.301 19.965 -0.115 1142
-1.299 19.965 -0.116 1199
-1.299 19.965 -0.111 1091
-1.302 19.965 -0.109 1078
-1.301 19.965 -0.109 996
-1.299 19.965 -0.109 996
-1.299 19.965 -0.107 1116
-1.297 19.964 -0.114 1002
-1.296 19.965 -0.111 1072
-1.295 19.965 -0.111 958
-1.296 19.964 -0.11 1066
-1.296 19.965 -0.108 1009
-1.302 19.966 -0.121 1161
-1.302 19.967 -0.122 1186
-1.301 19.966 -0.122 1161
-1.301 19.967 -0.121 1192
-1.302 19.966 -0.119 1116
-1.302 19.969 -0.12 1192
-1.3 19.967 -0.121 1211
-1.299 19.966 -0.121 1211
-1.299 19.967 -0.122 1154
-1.299 19.967 -0.121 1192
-1.3 19.966 -0.12 1218
-1.3 19.967 -0.119 1224
-1.3 19.968 -0.122 1192
-1.3 19.968 -0.119 1211
-1.302 19.967 -0.117 1148
-1.301 19.966 -0.117 1199
-1.301 19.967 -0.118 1167
-1.301 19.967 -0.117 1224
-1.302 19.966 -0.116 1173
-1.302 19.967 -0.115 1243
-1.301 19.969 -0.117 1249
-1.302 19.968 -0.116 1116
-1.299 19.966 -0.117 1230
-1.3 19.966 -0.115 1097
-1.3 19.967 -0.116 1186
-1.3 19.968 -0.117 1256
-1.3 19.969 -0.117 1224
-1.299 19.968 -0.115 1211
-1.299 19.97 -0.116 1332
-1.298 19.966 -0.121 1154
-1.297 19.967 -0.122 1230
-1.298 19.966 -0.119 1256
-1.298 19.967 -0.12 1230
-1.297 19.966 -0.12 1268
-1.297 19.967 -0.12 1249
-1.296 19.967 -0.122 1154
-1.296 19.967 -0.121 1218
-1.295 19.967 -0.121 1154
-1.296 19.966 -0.12 1249
-1.296 19.967 -0.119 1218
-1.295 19.966 -0.12 1135
-1.295 19.966 -0.119 1173
-1.295 19.969 -0.122 1085
-1.295 19.969 -0.12 1009
-1.298 19.967 -0.118 1205
-1.298 19.967 -0.117 1224
-1.297 19.966 -0.118 1306
-1.298 19.966 -0.115 1275
-1.297 19.966 -0.115 1180
-1.298 19.968 -0.117 1300
-1.297 19.968 -0.118 1300
-1.298 19.969 -0.116 1345
-1.296 19.967 -0.118 1332
-1.296 19.967 -0.117 1281
-1.295 19.967 -0.118 1205
-1.295 19.967 -0.117 1173
-1.296 19.967 -0.115 1161
-1.295 19.967 -0.115 1104
-1.295 19.969 -0.118 1142
-1.295 19.969 -0.117 1123
-1.296 19.969 -0.116 1211
-1.295 19.97 -0.119 1072
-1.302 19.966 -0.114 1180
-1.302 19.966 -0.113 1142
-1.302 19.967 -0.113 971
-1.301 19.966 -0.111 907
-1.302 19.968 -0.114 1097
-1.301 19.969 -0.114 1104
-1.3 19.967 -0.113 1097
-1.299 19.967 -0.114 1192
-1.3 19.966 -0.112 971
-1.3 19.966 -0.111 958
-1.299 19.966 -0.111 1097
-1.299 19.967 -0.112 1091
-1.3 19.968 -0.112 1116
-1.302 19.966 -0.11 939
-1.301 19.966 -0.11 952
-1.302 19.967 -0.107 1218
-1.301 19.966 -0.107 1148
-1.301 19.967 -0.107 1129
-1.3 19.967 -0.11 971
-1.3 19.967 -0.109 958
-1.299 19.967 -0.109 983
-1.3 19.966 -0.107 1078
-1.3 19.967 -0.108 945
-1.299 19.967 -0.108 1116
-1.299 19.969 -0.109 1104
-1.299 19.968 -0.108 1123
-1.298 19.966 -0.113 1002
-1.297 19.967 -0.113 1066
-1.298 19.966 -0.111 1167
-1.298 19.968 -0.111 1129
-1.297 19.968 -0.111 1161
-1.296 19.967 -0.114 1142
-1.296 19.967 -0.113 1066
-1.295 19.967 -0.114 1072
-1.295 19.967 -0.113 1002
-1.296 19.968 -0.112 996
-1.295 19.968 -0.111 933
-1.295 19.969 -0.112 1148
-1.298 19.967 -0.11 1161
-1.298 19.967 -0.107 1142
-1.297 19.967 -0.108 1110
-1.297 19.968 -0.11 1078
-1.296 19.967 -0.109 952
-1.295 19.966 -0.109 933
-1.295 19.967 -0.107 996
-1.295 19.968 -0.107 977
-1.294 19.965 -0.16 235
-1.294 19.965 -0.159 223
-1.291 19.965 -0.159 273
-1.293 19.965 -0.155 223
-1.289 19.965 -0.162 318
-1.288 19.965 -0.156 318
-1.294 19.966 -0.169 223
-1.294 19.967 -0.17 191
-1.293 19.967 -0.168 204
-1.293 19.969 -0.17 210
-1.293 19.968 -0.167 216
-1.293 19.969 -0.168 191
-1.292 19.967 -0.17 185
-1.292 19.968 -0.169 191
-1.292 19.968 -0.168 204
-1.292 19.968 -0.167 223
-1.291 19.969 -0.167 216
-1.294 19.967 -0.164 267
-1.293 19.966 -0.163 261
-1.294 19.969 -0.165 248
-1.293 19.968 -0.165 242
-1.294 19.969 -0.164 261
-1.293 19.969 -0.164 280
-1.293 19.969 -0.163 324
-1.292 19.967 -0.166 229
-1.291 19.967 -0.166 229
-1.291 19.967 -0.165 254
-1.292 19.967 -0.164 349
-1.292 19.969 -0.165 280
-1.294 19.97 -0.168 223
-1.294 19.971 -0.167 235
-1.291 19.97 -0.17 216
-1.291 19.97 -0.169 210
-1.292 19.97 -0.168 197
-1.291 19.973 -0.168 204
-1.291 19.97 -0.165 273
-1.29 19.969 -0.17 223
-1.289 19.969 -0.168 235
-1.288 19.967 -0.169 242
-1.288 19.968 -0.169 248
-1.288 19.968 -0.168 223
-1.287 19.968 -0.168 248
-1.289 19.966 -0.166 235
-1.29 19.966 -0.163 343
-1.29 19.968 -0.165 280
-1.29 19.969 -0.166 248
-1.288 19.967 -0.165 235
-1.288 19.967 -0.164 248
-1.288 19.969 -0.165 242
-1.288 19.969 -0.164 242
-1.29 19.97 -0.169 216
-1.29 19.973 -0.167 223
-1.288 19.971 -0.17 254
-1.288 19.97 -0.168 235
-1.287 19.971 -0.167 235
-1.29 19.97 -0.164 299
-1.29 19.97 -0.163 324
-1.289 19.972 -0.166 216
-1.288 19.97 -0.166 235
-1.288 19.971 -0.166 248
-1.287 19.97 -0.165 242
-1.287 19.972 -0.166 242
-1.294 19.966 -0.161 210
-1.293 19.969 -0.16 299
-1.292 19.968 -0.162 381
-1.291 19.968 -0.161 394
-1.292 19.968 -0.159 235
-1.291 19.968 -0.159 292
-1.294 19.968 -0.156 210
-1.293 19.969 -0.155 229
-1.292 19.966 -0.158 204
-1.291 19.968 -0.158 280
-1.292 19.968 -0.155 267
-1.292 19.969 -0.156 261
-1.291 19.969 -0.156 299
-1.291 19.969 -0.155 286
-1.294 19.97 -0.161 286
-1.293 19.971 -0.162 330
-1.294 19.97 -0.159 210
-1.292 19.97 -0.161 337
-1.294 19.97 -0.158 204
-1.294 19.97 -0.157 210
-1.294 19.971 -0.158 197
-1.293 19.97 -0.157 210
-1.293 19.971 -0.156 223
-1.292 19.97 -0.158 248
-1.291 19.97 -0.157 299
-1.292 19.972 -0.158 254
-1.289 19.967 -0.161 305
-1.29 19.966 -0.16 337
-1.289 19.969 -0.161 261
-1.29 19.968 -0.16 305
-1.29 19.968 -0.159 305
-1.289 19.969 -0.159 267
-1.287 19.967 -0.162 254
-1.288 19.966 -0.16 261
-1.287 19.966 -0.16 242
-1.287 19.967 -0.159 273
-1.287 19.969 -0.161 248
-1.29 19.967 -0.156 305
-1.289 19.967 -0.156 305
-1.287 19.967 -0.158 286
-1.288 19.966 -0.155 311
-1.288 19.968 -0.156 280
-1.289 19.971 -0.162 254
-1.288 19.971 -0.161 242
-1.29 19.971 -0.158 311
-1.289 19.97 -0.158 286
-1.289 19.971 -0.157 305
-1.287 19.971 -0.158 248
-1.288 19.97 -0.155 280
-1.288 19.971 -0.155 280
-1.287 19.97 -0.155 267
-1.283 19.964 -0.17 204
-1.284 19.964 -0.167 210
-1.283 19.965 -0.167 216
-1.281 19.965 -0.163 267
-1.286 19.965 -0.16 235
-1.284 19.965 -0.156 223
-1.286 19.966 -0.17 229
-1.286 19.968 -0.169 235
-1.286 19.969 -0.169 235
-1.286 19.969 -0.168 242
-1.284 19.966 -0.168 216
-1.283 19.967 -0.167 216
-1.284 19.968 -0.169 204
-1.286 19.967 -0.163 242
-1.286 19.968 -0.165 242
-1.286 19.968 -0.164 254
-1.284 19.967 -0.165 229
-1.284 19.968 -0.163 292
-1.283 19.968 -0.163 280
-1.285 19.97 -0.169 223
-1.285 19.971 -0.17 235
-1.283 19.97 -0.169 191
-1.286 19.97 -0.163 242
-1.286 19.972 -0.166 248
-1.285 19.973 -0.166 235
-1.285 19.972 -0.164 248
-1.284 19.97 -0.166 242
-1.284 19.971 -0.165 254
-1.283 19.97 -0.166 242
-1.283 19.97 -0.165 229
-1.282 19.966 -0.168 185
-1.282 19.969 -0.169 191
-1.281 19.969 -0.17 210
-1.281 19.969 -0.167 223
-1.28 19.968 -0.169 197
-1.279 19.968 -0.169 292
-1.28 19.969 -0.168 229
-1.281 19.966 -0.166 229
-1.282 19.967 -0.164 261
-1.282 19.968 -0.166 216
-1.281 19.969 -0.166 229
-1.282 19.969 -0.164 254
-1.279 19.966 -0.165 248
-1.28 19.966 -0.163 223
-1.279 19.969 -0.166 267
-1.28 19.968 -0.163 216
-1.279 19.968 -0.163 248
-1.279 19.969 -0.164 267
-1.282 19.971 -0.169 185
-1.281 19.971 -0.168 185
-1.282 19.972 -0.168 210
-1.28 19.97 -0.169 229
-1.28 19.97 -0.168 248
-1.28 19.97 -0.167 248
-1.279 19.97 -0.168 292
-1.279 19.97 -0.167 292
-1.281 19.973 -0.165 229
-1.282 19.972 -0.164 267
-1.28 19.972 -0.165 242
-1.286 19.967 -0.159 235
-1.286 19.968 -0.161 229
-1.285 19.969 -0.162 267
-1.286 19.968 -0.159 229
-1.284 19.967 -0.161 235
-1.284 19.967 -0.159 216
-1.284 19.969 -0.161 229
-1.283 19.968 -0.162 280
-1.286 19.968 -0.157 229
-1.286 19.968 -0.155 235
-1.286 19.969 -0.156 248
-1.284 19.967 -0.156 223
-1.284 19.969 -0.157 216
-1.283 19.968 -0.157 235
-1.284 19.968 -0.155 235
-1.283 19.968 -0.156 235
-1.286 19.97 -0.162 248
-1.286 19.97 -0.16 216
-1.285 19.97 -0.16 216
-1.284 19.97 -0.162 248
-1.284 19.971 -0.16 210
-1.283 19.972 -0.16 242
-1.285 19.97 -0.157 210
-1.285 19.972 -0.158 210
-1.283 19.97 -0.155 229
-1.283 19.972 -0.158 223
-1.282 19.966 -0.159 216
-1.28 19.967 -0.159 242
-1.28 19.968 -0.162 242
-1.28 19.968 -0.161 254
-1.282 19.968 -0.157 235
-1.282 19.969 -0.155 248
-1.281 19.968 -0.156 267
-1.28 19.967 -0.158 216
-1.279 19.967 -0.158 223
-1.279 19.967 -0.155 242
-1.28 19.969 -0.157 242
-1.279 19.969 -0.157 242
-1.28 19.968 -0.156 248
-1.28 19.968 -0.155 261
-1.282 19.971 -0.161 254
-1.282 19.971 -0.16 235
-1.281 19.972 -0.16 248
-1.28 19.97 -0.162 273
-1.28 19.97 -0.161 267
-1.279 19.97 -0.161 280
-1.28 19.97 -0.16 254
-1.28 19.97 -0.159 235
-1.279 19.971 -0.16 311
-1.279 19.973 -0.159 286
-1.281 19.97 -0.157 229
-1.29 19.965 -0.151 318
-1.287 19.965 -0.154 273
-1.289 19.964 -0.149 261
-1.293 19.964 -0.143 280
-1.293 19.965 -0.142 311
-1.294 19.965 -0.139 362
-1.289 19.963 -0.146 273
-1.29 19.965 -0.145 248
-1.288 19.965 -0.145 254
-1.288 19.965 -0.143 254
-1.288 19.965 -0.14 400
-1.293 19.967 -0.153 235
-1.294 19.969 -0.153 223
-1.293 19.969 -0.153 273
-1.294 19.969 -0.152 210
-1.292 19.967 -0.154 254
-1.292 19.967 -0.152 280
-1.291 19.967 -0.152 305
-1.292 19.969 -0.153 292
-1.291 19.968 -0.154 292
-1.291 19.968 -0.153 299
-1.292 19.968 -0.151 261
-1.292 19.969 -0.152 311
-1.291 19.969 -0.152 311
-1.294 19.967 -0.15 210
-1.294 19.967 -0.147 216
-1.294 19.968 -0.15 235
-1.294 19.968 -0.149 216
-1.293 19.969 -0.15 248
-1.294 19.969 -0.147 216
-1.293 19.969 -0.148 242
-1.291 19.967 -0.15 299
-1.292 19.967 -0.147 229
-1.291 19.967 -0.147 242
-1.292 19.969 -0.149 235
-1.291 19.968 -0.15 299
-1.292 19.968 -0.148 223
-1.292 19.968 -0.147 229
-1.293 19.97 -0.149 254
-1.294 19.973 -0.15 235
-1.291 19.971 -0.149 273
-1.291 19.97 -0.148 254
-1.29 19.967 -0.154 305
-1.29 19.969 -0.154 299
-1.29 19.968 -0.151 318
-1.29 19.969 -0.151 311
-1.289 19.969 -0.152 286
-1.288 19.967 -0.153 292
-1.287 19.966 -0.151 261
-1.289 19.966 -0.15 292
-1.29 19.969 -0.148 254
-1.288 19.967 -0.15 286
-1.287 19.966 -0.15 273
-1.287 19.966 -0.149 261
-1.288 19.967 -0.148 261
-1.288 19.968 -0.148 248
-1.288 19.968 -0.147 242
-1.29 19.97 -0.153 305
-1.289 19.97 -0.154 305
-1.289 19.97 -0.151 286
-1.288 19.97 -0.152 267
-1.289 19.973 -0.149 286
-1.287 19.971 -0.147 248
-1.294 19.967 -0.146 216
-1.294 19.968 -0.145 223
-1.291 19.967 -0.146 261
-1.292 19.966 -0.144 235
-1.292 19.968 -0.145 223
-1.292 19.968 -0.144 204
-1.291 19.969 -0.144 197
-1.294 19.967 -0.141 330
-1.294 19.966 -0.14 343
-1.293 19.967 -0.14 330
-1.294 19.969 -0.139 343
-1.293 19.968 -0.14 337
-1.292 19.966 -0.142 267
-1.292 19.966 -0.141 292
-1.291 19.966 -0.142 254
-1.291 19.966 -0.141 292
-1.291 19.967 -0.139 330
-1.292 19.968 -0.139 311
-1.291 19.968 -0.139 324
-1.294 19.971 -0.145 229
-1.293 19.97 -0.145 216
-1.294 19.97 -0.143 267
-1.293 19.971 -0.143 242
-1.292 19.971 -0.145 216
-1.291 19.97 -0.146 267
-1.293 19.97 -0.139 343
-1.292 19.97 -0.142 242
-1.291 19.972 -0.142 216
-1.29 19.966 -0.144 216
-1.29 19.968 -0.145 248
-1.29 19.968 -0.144 216
-1.29 19.969 -0.143 254
-1.288 19.967 -0.146 248
-1.288 19.969 -0.145 261
-1.288 19.968 -0.144 242
-1.29 19.966 -0.141 229
-1.29 19.966 -0.14 267
-1.29 19.969 -0.142 280
-1.29 19.969 -0.14 311
-1.288 19.966 -0.142 311
-1.287 19.967 -0.141 375
-1.288 19.966 -0.14 381
-1.287 19.966 -0.14 451
-1.287 19.967 -0.14 419
-1.288 19.97 -0.144 305
-1.288 19.97 -0.143 343
-1.289 19.97 -0.141 356
-1.29 19.97 -0.139 457
-1.287 19.97 -0.142 349
-1.287 19.97 -0.14 432
-1.287 19.973 -0.141 368
-1.285 19.965 -0.152 204
-1.283 19.964 -0.154 235
-1.284 19.964 -0.148 204
-1.279 19.965 -0.15 229
-1.28 19.964 -0.148 223
-1.285 19.965 -0.146 254
-1.284 19.965 -0.145 248
-1.286 19.966 -0.154 261
-1.286 19.966 -0.152 229
-1.286 19.968 -0.153 248
-1.286 19.969 -0.154 216
-1.286 19.968 -0.152 204
-1.286 19.968 -0.151 229
-1.284 19.967 -0.153 229
-1.284 19.967 -0.151 210
-1.284 19.968 -0.154 229
-1.283 19.968 -0.154 235
-1.284 19.968 -0.152 229
-1.283 19.969 -0.152 229
-1.286 19.968 -0.15 216
-1.286 19.968 -0.149 229
-1.285 19.968 -0.149 204
-1.286 19.968 -0.148 235
-1.284 19.966 -0.15 191
-1.284 19.966 -0.149 172
-1.284 19.968 -0.149 204
-1.283 19.969 -0.15 223
-1.284 19.968 -0.148 197
-1.284 19.969 -0.147 197
-1.283 19.969 -0.148 197
-1.285 19.971 -0.152 216
-1.285 19.972 -0.154 242
-1.283 19.971 -0.153 235
-1.284 19.97 -0.152 223
-1.284 19.97 -0.151 204
-1.283 19.972 -0.152 229
-1.286 19.97 -0.15 185
-1.286 19.971 -0.147 242
-1.285 19.97 -0.147 223
-1.286 19.972 -0.148 235
-1.283 19.97 -0.147 197
-1.283 19.972 -0.149 210
-1.282 19.968 -0.153 235
-1.282 19.969 -0.153 229
-1.28 19.966 -0.153 229
-1.279 19.967 -0.152 229
-1.28 19.969 -0.154 235
-1.279 19.969 -0.152 261
-1.282 19.968 -0.15 216
-1.282 19.969 -0.148 197
-1.28 19.968 -0.15 197
-1.28 19.969 -0.15 242
-1.28 19.969 -0.149 229
-1.279 19.968 -0.147 242
-1.279 19.969 -0.148 242
-1.281 19.97 -0.154 248
-1.282 19.971 -0.152 210
-1.281 19.971 -0.151 204
-1.279 19.97 -0.154 242
-1.28 19.97 -0.152 229
-1.279 19.971 -0.151 273
-1.282 19.971 -0.15 204
-1.281 19.97 -0.149 229
-1.282 19.971 -0.147 229
-1.281 19.972 -0.147 229
-1.279 19.971 -0.149 248
-1.28 19.971 -0.147 254
-1.286 19.966 -0.146 248
-1.285 19.967 -0.145 273
-1.286 19.967 -0.144 273
-1.286 19.968 -0.145 248
-1.286 19.968 -0.143 305
-1.284 19.967 -0.143 324
-1.283 19.967 -0.144 330
-1.284 19.968 -0.146 248
-1.284 19.969 -0.146 229
-1.284 19.969 -0.145 299
-1.283 19.969 -0.145 305
-1.284 19.969 -0.144 368
-1.285 19.967 -0.142 362
-1.286 19.966 -0.139 559
-1.286 19.968 -0.14 451
-1.284 19.967 -0.142 387
-1.284 19.967 -0.141 457
-1.283 19.966 -0.142 451
-1.284 19.967 -0.139 603
-1.283 19.966 -0.139 780
-1.283 19.967 -0.14 717
-1.284 19.969 -0.141 616
-1.283 19.969 -0.141 654
-1.285 19.971 -0.144 292
-1.283 19.971 -0.144 387
-1.283 19.972 -0.146 235
-1.286 19.97 -0.139 692
-1.285 19.97 -0.14 533
-1.281 19.967 -0.144 482
-1.282 19.969 -0.146 299
-1.281 19.969 -0.144 425
-1.28 19.969 -0.146 299
-1.279 19.969 -0.146 299
-1.279 19.969 -0.145 318
-1.28 19.969 -0.143 679
-1.279 19.969 -0.144 438
-1.282 19.967 -0.142 527
-1.282 19.966 -0.139 875
-1.282 19.969 -0.142 609
-1.281 19.968 -0.141 768
-1.282 19.968 -0.139 920
-1.281 19.969 -0.14 818
-1.28 19.967 -0.142 666
-1.28 19.967 -0.141 711
-1.28 19.967 -0.139 914
-1.279 19.967 -0.14 856
-1.28 19.969 -0.142 749
-1.279 19.969 -0.142 692
-1.279 19.969 -0.141 780
-1.28 19.968 -0.14 933
-1.28 19.968 -0.139 977
-1.279 19.969 -0.14 901
-1.279 19.969 -0.139 1142
-1.281 19.97 -0.146 254
-1.281 19.97 -0.145 356
-1.281 19.97 -0.144 508
-1.282 19.972 -0.145 381
-1.28 19.97 -0.145 368
-1.28 19.97 -0.144 533
-1.279 19.97 -0.143 533
-1.289 19.974 -0.17 204
-1.287 19.974 -0.157 254
-1.287 19.974 -0.156 261
-1.282 19.975 -0.159 216
-1.279 19.976 -0.155 248
-1.281 19.974 -0.152 210
-1.279 19.974 -0.15 267
-1.278 19.964 -0.165 248
-1.274 19.963 -0.161 261
-1.272 19.965 -0.157 185
-1.272 19.965 -0.155 172
-1.278 19.967 -0.17 305
-1.277 19.968 -0.17 305
-1.276 19.967 -0.169 305
-1.275 19.969 -0.169 273
-1.278 19.969 -0.165 267
-1.277 19.969 -0.165 267
-1.276 19.966 -0.164 299
-1.276 19.968 -0.166 305
-1.276 19.969 -0.166 305
-1.276 19.969 -0.165 299
-1.275 19.969 -0.165 299
-1.278 19.971 -0.169 305
-1.277 19.971 -0.169 311
-1.278 19.97 -0.167 299
-1.278 19.971 -0.167 292
-1.277 19.972 -0.168 305
-1.277 19.972 -0.167 305
-1.276 19.971 -0.17 305
-1.276 19.971 -0.169 305
-1.276 19.97 -0.168 292
-1.275 19.97 -0.168 254
-1.275 19.972 -0.17 299
-1.278 19.97 -0.166 267
-1.278 19.971 -0.164 280
-1.277 19.971 -0.163 299
-1.277 19.972 -0.166 286
-1.278 19.973 -0.163 261
-1.275 19.971 -0.166 286
-1.276 19.972 -0.163 273
-1.273 19.966 -0.169 242
-1.273 19.967 -0.17 242
-1.273 19.969 -0.167 235
-1.272 19.968 -0.17 235
-1.272 19.968 -0.167 261
-1.271 19.969 -0.167 292
-1.274 19.967 -0.163 261
-1.274 19.969 -0.165 261
-1.271 19.966 -0.164 229
-1.272 19.968 -0.166 242
-1.272 19.969 -0.165 248
-1.272 19.968 -0.164 242
-1.274 19.971 -0.17 261
-1.274 19.971 -0.167 248
-1.273 19.97 -0.168 223
-1.272 19.971 -0.17 216
-1.271 19.971 -0.17 216
-1.271 19.971 -0.169 223
-1.272 19.97 -0.168 235
-1.272 19.971 -0.167 254
-1.274 19.97 -0.166 261
-1.274 19.971 -0.163 235
-1.273 19.971 -0.163 242
-1.272 19.97 -0.166 248
-1.271 19.97 -0.166 311
-1.272 19.97 -0.163 204
-1.271 19.97 -0.163 210
-1.277 19.967 -0.16 305
-1.278 19.968 -0.162 299
-1.276 19.968 -0.162 286
-1.276 19.968 -0.159 254
-1.276 19.969 -0.16 305
-1.275 19.968 -0.159 248
-1.278 19.967 -0.158 267
-1.278 19.966 -0.156 235
-1.278 19.968 -0.158 261
-1.278 19.968 -0.155 223
-1.278 19.969 -0.156 267
-1.277 19.969 -0.155 229
-1.275 19.966 -0.156 204
-1.276 19.968 -0.158 229
-1.276 19.969 -0.157 210
-1.276 19.968 -0.155 216
-1.275 19.968 -0.156 191
-1.275 19.968 -0.155 191
-1.278 19.971 -0.161 318
-1.277 19.971 -0.162 286
-1.277 19.971 -0.161 299
-1.277 19.971 -0.16 311
-1.278 19.972 -0.159 280
-1.277 19.972 -0.159 292
-1.275 19.97 -0.162 254
-1.275 19.971 -0.16 273
-1.278 19.971 -0.157 254
-1.277 19.97 -0.158 261
-1.277 19.971 -0.157 242
-1.277 19.971 -0.156 242
-1.275 19.971 -0.158 223
-1.273 19.967 -0.16 229
-1.274 19.969 -0.162 229
-1.274 19.969 -0.159 229
-1.271 19.966 -0.162 210
-1.271 19.968 -0.161 223
-1.272 19.968 -0.16 210
-1.272 19.969 -0.159 223
-1.271 19.969 -0.16 216
-1.273 19.967 -0.155 178
-1.274 19.969 -0.158 204
-1.271 19.966 -0.156 178
-1.272 19.969 -0.156 185
-1.274 19.971 -0.161 223
-1.273 19.971 -0.162 216
-1.273 19.971 -0.159 216
-1.271 19.971 -0.162 185
-1.272 19.971 -0.16 235
-1.271 19.971 -0.159 242
-1.273 19.971 -0.156 159
-1.274 19.973 -0.157 172
-1.273 19.973 -0.158 210
-1.272 19.971 -0.157 204
-1.271 19.971 -0.158 235
-1.271 19.973 -0.155 204
-1.268 19.965 -0.166 273
-1.266 19.965 -0.162 242
-1.263 19.965 -0.161 191
-1.27 19.967 -0.168 235
-1.268 19.966 -0.169 204
-1.268 19.967 -0.17 197
-1.267 19.969 -0.168 210
-1.27 19.966 -0.165 305
-1.27 19.969 -0.166 299
-1.27 19.969 -0.165 280
-1.27 19.968 -0.164 267
-1.268 19.968 -0.165 242
-1.267 19.969 -0.165 254
-1.27 19.971 -0.17 210
-1.27 19.97 -0.167 299
-1.27 19.971 -0.168 261
-1.27 19.971 -0.167 305
-1.269 19.971 -0.168 223
-1.268 19.97 -0.17 210
-1.267 19.97 -0.17 254
-1.268 19.97 -0.167 242
-1.268 19.971 -0.168 216
-1.267 19.973 -0.169 223
-1.269 19.971 -0.165 267
-1.27 19.97 -0.164 242
-1.269 19.971 -0.164 261
-1.27 19.972 -0.163 197
-1.268 19.97 -0.165 261
-1.267 19.972 -0.166 223
-1.268 19.973 -0.164 261
-1.267 19.972 -0.163 229
-1.265 19.967 -0.169 210
-1.266 19.966 -0.167 204
-1.265 19.967 -0.168 235
-1.266 19.969 -0.17 204
-1.263 19.966 -0.168 229
-1.264 19.968 -0.17 235
-1.264 19.968 -0.169 223
-1.264 19.969 -0.167 242
-1.265 19.969 -0.166 248
-1.265 19.969 -0.165 254
-1.264 19.967 -0.163 204
-1.263 19.968 -0.164 223
-1.265 19.973 -0.168 229
-1.264 19.97 -0.169 223
-1.263 19.971 -0.167 210
-1.264 19.973 -0.169 235
-1.263 19.972 -0.168 210
-1.265 19.97 -0.164 242
-1.266 19.972 -0.166 254
-1.266 19.973 -0.166 261
-1.266 19.973 -0.165 261
-1.266 19.973 -0.164 216
-1.264 19.971 -0.166 235
-1.264 19.971 -0.165 235
-1.263 19.971 -0.166 210
-1.263 19.971 -0.165 204
-1.264 19.972 -0.166 235
-1.263 19.973 -0.163 223
-1.269 19.968 -0.161 223
-1.267 19.968 -0.16 223
-1.267 19.968 -0.159 197
-1.27 19.967 -0.156 216
-1.27 19.968 -0.157 223
-1.27 19.969 -0.156 223
-1.269 19.969 -0.156 204
-1.267 19.968 -0.157 178
-1.267 19.969 -0.156 178
-1.267 19.969 -0.155 197
-1.27 19.97 -0.162 197
-1.269 19.97 -0.161 204
-1.27 19.971 -0.159 229
-1.269 19.97 -0.159 242
-1.269 19.973 -0.16 229
-1.268 19.97 -0.162 216
-1.267 19.97 -0.161 235
-1.268 19.973 -0.161 223
-1.268 19.973 -0.16 242
-1.27 19.97 -0.156 204
-1.269 19.972 -0.158 216
-1.269 19.972 -0.155 229
-1.268 19.97 -0.157 197
-1.267 19.971 -0.158 191
-1.268 19.972 -0.156 204
-1.265 19.968 -0.161 223
-1.265 19.969 -0.16 210
-1.264 19.966 -0.158 178
-1.264 19.966 -0.157 185
-1.263 19.966 -0.158 185
-1.263 19.967 -0.155 191
-1.263 19.969 -0.156 166
-1.266 19.971 -0.162 223
-1.265 19.971 -0.162 210
-1.266 19.971 -0.16 197
-1.265 19.971 -0.159 185
-1.266 19.973 -0.159 172
-1.264 19.971 -0.162 191
-1.263 19.97 -0.162 197
-1.264 19.97 -0.16 191
-1.264 19.97 -0.159 178
-1.263 19.971 -0.16 185
-1.266 19.971 -0.158 172
-1.266 19.971 -0.155 204
-1.265 19.97 -0.155 191
-1.265 19.971 -0.156 185
-1.263 19.971 -0.158 166
-1.264 19.97 -0.156 191
-1.264 19.971 -0.155 191
-1.273 19.964 -0.154 223
-1.271 19.963 -0.152 197
-1.272 19.965 -0.152 191
-1.274 19.963 -0.146 318
-1.278 19.967 -0.153 248
-1.278 19.968 -0.153 248
-1.278 19.969 -0.153 261
-1.277 19.968 -0.153 229
-1.277 19.969 -0.154 223
-1.277 19.968 -0.152 248
-1.277 19.969 -0.151 261
-1.276 19.967 -0.153 235
-1.275 19.969 -0.154 197
-1.277 19.967 -0.147 299
-1.278 19.969 -0.15 286
-1.277 19.969 -0.15 273
-1.277 19.969 -0.149 286
-1.277 19.968 -0.148 242
-1.277 19.968 -0.147 311
-1.275 19.966 -0.15 261
-1.275 19.969 -0.149 223
-1.276 19.969 -0.147 311
-1.275 19.969 -0.148 248
-1.278 19.971 -0.152 286
-1.275 19.97 -0.152 235
-1.275 19.971 -0.151 235
-1.276 19.972 -0.152 254
-1.278 19.972 -0.149 242
-1.278 19.972 -0.148 254
-1.276 19.971 -0.149 242
-1.275 19.971 -0.15 229
-1.276 19.973 -0.15 248
-1.274 19.967 -0.153 210
-1.273 19.966 -0.152 216
-1.273 19.969 -0.154 185
-1.272 19.969 -0.151 204
-1.271 19.968 -0.151 235
-1.274 19.966 -0.147 286
-1.272 19.967 -0.149 254
-1.271 19.967 -0.147 508
-1.272 19.969 -0.148 292
-1.272 19.969 -0.147 394
-1.274 19.97 -0.154 216
-1.273 19.971 -0.153 204
-1.274 19.973 -0.151 210
-1.272 19.97 -0.153 191
-1.271 19.972 -0.154 204
-1.274 19.97 -0.149 223
-1.274 19.97 -0.148 280
-1.274 19.97 -0.147 381
-1.273 19.972 -0.15 223
-1.272 19.971 -0.15 261
-1.272 19.971 -0.149 318
-1.272 19.971 -0.148 413
-1.271 19.972 -0.15 261
-1.277 19.967 -0.144 609
-1.278 19.968 -0.145 489
-1.277 19.968 -0.145 463
-1.277 19.969 -0.146 387
-1.275 19.966 -0.145 527
-1.276 19.969 -0.146 419
-1.276 19.969 -0.143 685
-1.275 19.969 -0.143 799
-1.278 19.968 -0.141 952
-1.277 19.969 -0.142 736
-1.278 19.969 -0.139 1161
-1.277 19.969 -0.14 971
-1.277 19.969 -0.139 1104
-1.276 19.967 -0.141 1110
-1.276 19.968 -0.142 926
-1.275 19.968 -0.141 990
-1.276 19.969 -0.139 1161
-1.278 19.971 -0.146 375
-1.277 19.97 -0.144 521
-1.275 19.971 -0.145 521
-1.278 19.97 -0.142 711
-1.275 19.97 -0.14 1167
-1.275 19.97 -0.139 1192
-1.274 19.967 -0.144 603
-1.273 19.968 -0.145 698
-1.274 19.969 -0.144 856
-1.273 19.968 -0.143 983
-1.272 19.967 -0.146 521
-1.272 19.969 -0.145 730
-1.271 19.968 -0.145 825
-1.274 19.968 -0.142 907
-1.273 19.968 -0.141 1173
-1.274 19.969 -0.139 1211
-1.272 19.967 -0.14 1097
-1.271 19.967 -0.139 1072
-1.272 19.968 -0.141 1091
-1.271 19.968 -0.142 1142
-1.271 19.969 -0.142 1091
-1.272 19.968 -0.139 1104
-1.274 19.97 -0.146 527
-1.273 19.97 -0.144 958
-1.273 19.972 -0.144 850
-1.271 19.971 -0.146 584
-1.272 19.97 -0.144 1091
-1.272 19.97 -0.143 1161
-1.271 19.971 -0.144 844
-1.273 19.97 -0.142 1104
-1.271 19.97 -0.141 1142
-1.272 19.97 -0.14 1116
-1.264 19.965 -0.149 387
-1.27 19.969 -0.153 204
-1.269 19.968 -0.153 235
-1.27 19.968 -0.152 223
-1.27 19.969 -0.152 223
-1.27 19.969 -0.151 229
-1.269 19.968 -0.152 248
-1.269 19.968 -0.151 235
-1.267 19.966 -0.154 254
-1.268 19.967 -0.152 261
-1.268 19.968 -0.151 235
-1.268 19.969 -0.151 235
-1.267 19.968 -0.151 248
-1.27 19.967 -0.147 451
-1.27 19.968 -0.149 311
-1.27 19.968 -0.148 330
-1.27 19.969 -0.147 578
-1.269 19.968 -0.147 501
-1.269 19.969 -0.148 368
-1.267 19.968 -0.15 280
-1.268 19.968 -0.147 540
-1.27 19.971 -0.153 223
-1.269 19.97 -0.151 242
-1.27 19.972 -0.154 216
-1.27 19.973 -0.154 210
-1.269 19.972 -0.154 229
-1.27 19.972 -0.151 235
-1.268 19.97 -0.154 242
-1.267 19.97 -0.154 223
-1.267 19.97 -0.153 242
-1.267 19.972 -0.152 248
-1.27 19.97 -0.15 292
-1.27 19.971 -0.149 330
-1.269 19.972 -0.149 280
-1.268 19.971 -0.149 286
-1.267 19.971 -0.149 337
-1.268 19.97 -0.148 400
-1.267 19.971 -0.147 514
-1.266 19.968 -0.154 216
-1.266 19.969 -0.152 223
-1.263 19.966 -0.154 210
-1.264 19.968 -0.153 204
-1.264 19.968 -0.152 223
-1.264 19.969 -0.151 311
-1.266 19.967 -0.148 375
-1.263 19.967 -0.149 444
-1.264 19.969 -0.148 508
-1.265 19.971 -0.154 197
-1.266 19.97 -0.152 273
-1.265 19.972 -0.151 280
-1.263 19.97 -0.152 248
-1.263 19.971 -0.152 229
-1.263 19.973 -0.153 210
-1.264 19.973 -0.152 235
-1.266 19.97 -0.15 305
-1.266 19.971 -0.149 368
-1.266 19.971 -0.147 584
-1.265 19.97 -0.148 413
-1.265 19.971 -0.147 501
-1.265 19.973 -0.15 318
-1.266 19.972 -0.148 457
-1.264 19.97 -0.15 394
-1.263 19.971 -0.15 324
-1.263 19.97 -0.148 565
-1.263 19.97 -0.147 628
-1.27 19.968 -0.145 742
-1.269 19.968 -0.145 704
-1.269 19.969 -0.146 609
-1.27 19.968 -0.144 945
-1.27 19.969 -0.144 933
-1.269 19.968 -0.143 1085
-1.269 19.969 -0.144 761
-1.269 19.969 -0.143 869
-1.268 19.968 -0.145 679
-1.268 19.969 -0.144 793
-1.267 19.968 -0.144 742
-1.267 19.969 -0.144 799
-1.27 19.967 -0.139 996
-1.269 19.967 -0.14 945
-1.269 19.968 -0.142 901
-1.269 19.968 -0.141 983
-1.27 19.968 -0.14 1104
-1.269 19.969 -0.139 863
-1.267 19.967 -0.14 869
-1.268 19.968 -0.141 894
-1.267 19.968 -0.141 856
-1.267 19.969 -0.142 825
-1.267 19.968 -0.14 914
-1.27 19.97 -0.145 799
-1.27 19.973 -0.146 685
-1.268 19.97 -0.146 616
-1.267 19.97 -0.146 628
-1.267 19.97 -0.145 666
-1.268 19.97 -0.143 850
-1.269 19.97 -0.141 901
-1.269 19.971 -0.14 888
-1.267 19.971 -0.139 901
-1.266 19.968 -0.143 863
-1.266 19.969 -0.144 844
-1.264 19.969 -0.146 742
-1.264 19.969 -0.145 818
-1.263 19.969 -0.146 787
-1.264 19.968 -0.143 812
-1.265 19.968 -0.142 901
-1.266 19.968 -0.139 914
-1.263 19.967 -0.14 964
-1.264 19.968 -0.142 926
-1.263 19.969 -0.141 983
-1.264 19.969 -0.139 914
-1.266 19.971 -0.146 679
-1.265 19.97 -0.146 673
-1.265 19.971 -0.145 742
-1.265 19.97 -0.144 768
-1.266 19.972 -0.145 742
-1.264 19.97 -0.144 825
-1.264 19.97 -0.143 901
-1.266 19.971 -0.141 939
-1.265 19.97 -0.141 869
-1.265 19.971 -0.142 831
-1.265 19.971 -0.141 863
-1.264 19.97 -0.139 926
-1.263 19.97 -0.139 1066
-1.272 19.974 -0.155 191
-1.268 19.974 -0.168 223
-1.269 19.974 -0.163 229
-1.263 19.975 -0.169 229
-1.27 19.974 -0.16 223
-1.268 19.975 -0.159 210
-1.266 19.975 -0.157 185
-1.294 19.965 -0.135 521
-1.292 19.965 -0.138 343
-1.29 19.965 -0.133 914
-1.294 19.965 -0.126 882
-1.294 19.967 -0.137 362
-1.293 19.966 -0.137 375
-1.294 19.968 -0.137 330
-1.294 19.968 -0.136 584
-1.293 19.969 -0.136 495
-1.292 19.967 -0.135 578
-1.291 19.966 -0.135 730
-1.292 19.969 -0.137 501
-1.291 19.968 -0.138 400
-1.291 19.969 -0.138 501
-1.291 19.969 -0.136 641
-1.294 19.967 -0.131 1142
-1.293 19.967 -0.131 1154
-1.294 19.968 -0.134 774
-1.294 19.968 -0.133 1078
-1.293 19.969 -0.134 761
-1.294 19.968 -0.132 1199
-1.292 19.967 -0.133 920
-1.291 19.966 -0.134 799
-1.291 19.967 -0.134 768
-1.292 19.967 -0.132 1123
-1.292 19.967 -0.131 1142
-1.291 19.967 -0.131 1161
-1.292 19.968 -0.133 990
-1.292 19.969 -0.132 1142
-1.291 19.968 -0.132 1072
-1.291 19.968 -0.131 1116
-1.293 19.97 -0.137 406
-1.29 19.966 -0.135 692
-1.289 19.967 -0.136 730
-1.29 19.969 -0.137 641
-1.288 19.967 -0.137 603
-1.288 19.968 -0.138 628
-1.287 19.968 -0.137 742
-1.287 19.969 -0.138 641
-1.288 19.968 -0.135 768
-1.288 19.969 -0.135 780
-1.287 19.969 -0.135 850
-1.29 19.968 -0.134 926
-1.29 19.968 -0.133 1066
-1.289 19.969 -0.134 825
-1.29 19.969 -0.131 1104
-1.289 19.968 -0.132 1072
-1.288 19.966 -0.131 990
-1.287 19.967 -0.131 939
-1.288 19.968 -0.133 952
-1.288 19.969 -0.134 818
-1.287 19.968 -0.133 875
-1.288 19.968 -0.132 983
-1.288 19.969 -0.132 907
-1.289 19.97 -0.138 521
-1.289 19.971 -0.137 679
-1.287 19.97 -0.133 894
-1.294 19.966 -0.13 1148
-1.294 19.967 -0.129 1104
-1.293 19.966 -0.13 1135
-1.293 19.967 -0.129 1116
-1.294 19.967 -0.128 964
-1.293 19.966 -0.127 894
-1.293 19.969 -0.129 1167
-1.293 19.969 -0.128 1116
-1.291 19.966 -0.13 1205
-1.291 19.967 -0.129 1148
-1.291 19.969 -0.13 1154
-1.292 19.968 -0.128 983
-1.292 19.968 -0.127 964
-1.291 19.968 -0.127 844
-1.291 19.969 -0.128 1173
-1.291 19.969 -0.127 1066
-1.294 19.966 -0.125 914
-1.293 19.967 -0.126 901
-1.294 19.967 -0.124 964
-1.293 19.967 -0.123 996
-1.294 19.969 -0.125 939
-1.294 19.968 -0.123 1009
