0.0255 4.9999 0.0574 782
0.0275 4.9989 0.0514 672
0.0285 4.9989 0.0504 944
0.0265 4.9999 0.0574 705
0.0275 4.9989 0.0574 724
0.0265 5.0009 0.0554 777
0.0285 4.9989 0.0574 601
0.0225 4.9999 0.0604 562
0.0225 4.9999 0.0614 505
0.0255 4.9999 0.0584 577
0.0225 4.9989 0.0634 339
0.0225 5.0019 0.0654 324
0.0245 4.9989 0.0624 453
0.0255 4.9989 0.0624 405
0.0255 4.9999 0.0624 315
0.0255 4.9989 0.0644 324
0.0265 4.9999 0.0594 477
0.0275 4.9989 0.0594 477
0.0265 4.9989 0.0614 443
0.0275 4.9989 0.0604 500
0.0295 4.9989 0.0584 496
0.0295 4.9989 0.0604 372
0.0265 5.0009 0.0624 381
0.0275 5.0019 0.0624 229
0.0265 5.0009 0.0644 272
0.0295 4.9989 0.0624 215
0.0285 4.9999 0.0654 243
0.0295 4.9989 0.0644 181
0.0295 5.0009 0.0654 215
0.0285 5.0029 0.0634 229
0.0335 4.9939 0.0404 734
0.0315 4.9959 0.0354 867
0.0305 4.9969 0.0354 863
0.0305 4.9979 0.0344 810
0.0305 4.9979 0.0374 834
0.0315 4.9979 0.0364 910
0.0325 4.9949 0.0354 810
0.0335 4.9949 0.0344 877
0.0325 4.9959 0.0364 767
0.0335 4.9979 0.0354 901
0.0305 4.9959 0.0394 829
0.0315 4.9959 0.0414 1096
0.0315 4.9969 0.0394 810
0.0315 4.9979 0.0384 729
0.0305 4.9969 0.0404 810
0.0315 4.9969 0.0404 1163
0.0335 4.9959 0.0414 662
0.0325 4.9969 0.0394 701
0.0335 4.9969 0.0384 1096
0.0345 4.9949 0.0354 843
0.0355 4.9959 0.0344 753
0.0355 4.9959 0.0374 944
0.0345 4.9969 0.0364 1072
0.0355 4.9979 0.0364 796
0.0375 4.9949 0.0354 648
0.0365 4.9959 0.0364 601
0.0375 4.9959 0.0364 729
0.0375 4.9979 0.0344 705
0.0375 4.9979 0.0374 743
0.0355 4.9949 0.0384 920
0.0355 4.9959 0.0394 686
0.0345 4.9969 0.0384 1148
0.0345 4.9979 0.0404 872
0.0345 4.9979 0.0414 748
0.0365 4.9979 0.0384 853
0.0375 4.9979 0.0384 834
0.0365 4.9969 0.0404 805
0.0365 4.9979 0.0414 910
0.0375 4.9969 0.0414 858
0.0315 4.9939 0.0474 820
0.0305 4.9959 0.0444 867
0.0305 4.9969 0.0424 910
0.0305 4.9979 0.0424 867
0.0315 4.9969 0.0424 982
0.0315 4.9979 0.0424 891
0.0325 4.9959 0.0424 843
0.0335 4.9949 0.0424 648
0.0335 4.9949 0.0454 858
0.0335 4.9969 0.0424 677
0.0325 4.9979 0.0444 863
0.0325 4.9979 0.0454 820
0.0335 4.9979 0.0444 720
0.0305 4.9959 0.0464 791
0.0315 4.9959 0.0494 810
0.0305 4.9979 0.0474 705
0.0315 4.9969 0.0464 648
0.0305 4.9969 0.0484 758
0.0315 4.9979 0.0494 934
0.0325 4.9959 0.0464 843
0.0335 4.9959 0.0464 815
0.0335 4.9959 0.0484 796
0.0335 4.9959 0.0494 853
0.0325 4.9979 0.0474 834
0.0335 4.9979 0.0474 905
0.0325 4.9979 0.0494 877
0.0365 4.9939 0.0424 877
0.0355 4.9949 0.0434 686
0.0355 4.9959 0.0444 758
0.0355 4.9959 0.0454 720
0.0355 4.9969 0.0424 853
0.0345 4.9979 0.0444 872
0.0365 4.9959 0.0434 753
0.0375 4.9959 0.0454 715
0.0375 4.9969 0.0434 782
0.0365 4.9969 0.0444 667
0.0355 4.9959 0.0464 920
0.0345 4.9969 0.0464 891
0.0355 4.9979 0.0464 748
0.0345 4.9969 0.0484 1191
0.0355 4.9979 0.0494 810
0.0365 4.9959 0.0464 696
0.0365 4.9949 0.0484 958
0.0375 4.9959 0.0484 720
0.0365 4.9979 0.0474 739
0.0375 4.9979 0.0464 824
0.0395 4.9959 0.0354 896
0.0395 4.9969 0.0344 805
0.0385 4.9969 0.0364 805
0.0405 4.9959 0.0354 715
0.0415 4.9959 0.0344 858
0.0405 4.9959 0.0374 1082
0.0415 4.9949 0.0364 801
0.0415 4.9959 0.0374 724
0.0405 4.9979 0.0364 877
0.0385 4.9979 0.0394 743
0.0385 4.9979 0.0404 696
0.0385 4.9979 0.0414 762
0.0395 4.9979 0.0404 858
0.0395 4.9979 0.0414 748
0.0405 4.9959 0.0394 829
0.0405 4.9949 0.0404 839
0.0415 4.9949 0.0404 743
0.0405 4.9969 0.0384 891
0.0415 4.9969 0.0384 643
0.0405 4.9969 0.0414 796
0.0415 4.9979 0.0414 772
0.0425 4.9959 0.0344 739
0.0425 4.9959 0.0354 853
0.0435 4.9959 0.0354 863
0.0435 4.9979 0.0344 863
0.0425 4.9969 0.0364 877
0.0435 4.9969 0.0364 853
0.0435 4.9979 0.0374 948
0.0455 4.9959 0.0374 982
0.0445 4.9969 0.0354 843
0.0445 4.9979 0.0354 762
0.0455 4.9969 0.0344 758
0.0455 4.9969 0.0354 896
0.0445 4.9969 0.0374 820
0.0445 4.9979 0.0374 958
0.0455 4.9979 0.0374 834
0.0425 4.9959 0.0394 853
0.0435 4.9959 0.0384 934
0.0435 4.9959 0.0404 839
0.0425 4.9969 0.0384 839
0.0425 4.9969 0.0414 762
0.0435 4.9969 0.0414 739
0.0445 4.9959 0.0384 810
0.0455 4.9949 0.0384 843
0.0455 4.9979 0.0394 782
0.0445 4.9979 0.0404 829
0.0455 4.9969 0.0404 762
0.0385 4.9959 0.0424 820
0.0385 4.9949 0.0454 715
0.0385 4.9979 0.0434 762
0.0395 4.9979 0.0424 686
0.0395 4.9979 0.0434 586
0.0395 4.9969 0.0454 739
0.0415 4.9949 0.0444 805
0.0415 4.9959 0.0454 601
0.0405 4.9979 0.0424 739
0.0415 4.9969 0.0424 772
0.0415 4.9979 0.0424 839
0.0405 4.9979 0.0444 543
0.0395 4.9959 0.0464 767
0.0385 4.9959 0.0484 729
0.0395 4.9959 0.0494 520
0.0385 4.9979 0.0474 743
0.0395 4.9979 0.0474 720
0.0395 4.9969 0.0494 601
0.0405 4.9969 0.0464 601
0.0405 4.9969 0.0474 715
0.0405 4.9979 0.0464 639
0.0415 4.9969 0.0474 682
0.0415 4.9979 0.0464 658
0.0405 4.9969 0.0494 567
0.0435 4.9939 0.0444 629
0.0425 4.9959 0.0444 753
0.0425 4.9969 0.0424 715
0.0425 4.9979 0.0444 782
0.0435 4.9969 0.0444 648
0.0445 4.9969 0.0424 863
0.0445 4.9979 0.0434 786
0.0445 4.9969 0.0454 662
0.0455 4.9979 0.0454 405
0.0425 4.9949 0.0464 667
0.0425 4.9959 0.0474 639
0.0435 4.9959 0.0494 353
0.0425 4.9969 0.0464 620
0.0435 4.9969 0.0464 562
0.0425 4.9969 0.0494 524
0.0445 4.9959 0.0494 329
0.0445 4.9979 0.0474 591
0.0455 4.9979 0.0464 367
0.0455 4.9969 0.0484 410
0.0455 4.9969 0.0494 329
0.0305 4.9959 0.0514 872
0.0305 4.9959 0.0524 824
0.0315 4.9959 0.0534 839
0.0315 4.9979 0.0504 758
0.0315 4.9979 0.0514 686
0.0315 4.9969 0.0524 772
0.0325 4.9949 0.0524 715
0.0325 4.9979 0.0514 853
0.0335 4.9969 0.0504 886
0.0335 4.9969 0.0514 815
0.0325 4.9979 0.0534 801
0.0335 4.9969 0.0534 796
0.0335 4.9979 0.0524 839
0.0315 4.9959 0.0554 691
0.0305 4.9969 0.0554 667
0.0315 4.9969 0.0544 863
0.0325 4.9979 0.0544 772
0.0325 4.9979 0.0554 662
0.0325 4.9969 0.0574 419
0.0325 4.9979 0.0574 553
0.0335 4.9969 0.0574 315
0.0355 4.9959 0.0504 777
0.0345 4.9959 0.0524 820
0.0355 4.9959 0.0524 686
0.0355 4.9959 0.0534 639
0.0345 4.9969 0.0504 863
0.0375 4.9949 0.0534 448
0.0375 4.9959 0.0534 529
0.0375 4.9979 0.0504 553
0.0355 4.9949 0.0554 434
0.0355 4.9959 0.0574 267
0.0345 4.9969 0.0544 786
0.0345 4.9969 0.0554 734
0.0355 4.9969 0.0544 477
0.0345 4.9979 0.0574 362
0.0365 4.9979 0.0544 682
0.0365 4.9969 0.0564 462
0.0365 4.9979 0.0574 367
0.0375 4.9969 0.0574 248
0.0305 4.9959 0.0604 391
0.0315 4.9949 0.0604 300
0.0305 4.9979 0.0594 424
0.0315 4.9979 0.0594 319
0.0325 4.9959 0.0594 343
0.0335 4.9949 0.0604 210
0.0325 4.9969 0.0604 238
0.0305 4.9979 0.0634 177
0.0335 4.9959 0.0644 167
0.0325 4.9979 0.0624 210
0.0325 4.9979 0.0634 215
0.0335 4.9979 0.0624 191
0.0325 4.9979 0.0654 215
0.0365 4.9939 0.0634 172
0.0355 4.9949 0.0604 177
0.0345 4.9979 0.0584 319
0.0355 4.9969 0.0584 267
0.0345 4.9969 0.0604 253
0.0375 4.9959 0.0584 243
0.0365 4.9979 0.0584 243
0.0365 4.9969 0.0604 210
0.0355 4.9949 0.0624 157
0.0345 4.9979 0.0654 191
0.0355 4.9979 0.0654 177
0.0375 4.9969 0.0624 196
0.0375 4.9979 0.0644 153
0.0395 4.9969 0.0514 410
0.0395 4.9979 0.0504 415
0.0385 4.9979 0.0524 453
0.0395 4.9969 0.0524 443
0.0395 4.9979 0.0534 396
0.0405 4.9979 0.0514 434
0.0405 4.9979 0.0524 343
0.0405 4.9979 0.0534 353
0.0415 4.9969 0.0524 310
0.0395 4.9959 0.0544 305
0.0385 4.9949 0.0564 267
0.0395 4.9959 0.0574 238
0.0385 4.9979 0.0544 396
0.0395 4.9969 0.0554 238
0.0435 4.9939 0.0534 157
0.0455 4.9939 0.0574 167
0.0425 4.9959 0.0514 396
0.0435 4.9949 0.0524 248
0.0435 4.9969 0.0504 315
0.0435 4.9969 0.0514 296
0.0425 4.9979 0.0524 419
0.0455 4.9959 0.0534 177
0.0455 4.9979 0.0524 148
0.0425 4.9949 0.0564 172
0.0425 4.9949 0.0574 181
0.0435 4.9969 0.0574 172
0.0435 4.9979 0.0574 143
0.0395 4.9919 0.0624 191
0.0395 4.9959 0.0584 215
0.0395 4.9969 0.0614 224
0.0415 4.9959 0.0604 205
0.0405 4.9969 0.0594 148
0.0405 4.9969 0.0614 157
0.0415 4.9969 0.0604 205
0.0405 4.9979 0.0624 210
0.0405 4.9979 0.0654 191
0.0415 4.9979 0.0644 210
0.0415 4.9979 0.0654 215
0.0435 4.9919 0.0604 191
0.0435 4.9939 0.0624 186
0.0445 4.9939 0.0624 215
0.0445 4.9929 0.0654 143
0.0425 4.9959 0.0594 219
0.0445 4.9959 0.0594 157
0.0425 4.9959 0.0634 253
0.0425 4.9949 0.0654 167
0.0445 4.9949 0.0634 153
0.0445 4.9979 0.0654 148
0.0455 4.9969 0.0654 172
0.0315 4.9989 0.0344 901
0.0325 4.9999 0.0344 944
0.0325 4.9989 0.0374 691
0.0335 4.9989 0.0374 748
0.0325 4.9999 0.0394 729
0.0325 4.9989 0.0404 901
0.0325 4.9989 0.0414 948
0.0355 4.9999 0.0354 686
0.0345 5.0009 0.0374 715
0.0365 4.9989 0.0374 653
0.0355 4.9999 0.0414 1110
0.0375 4.9989 0.0394 834
0.0315 4.9989 0.0434 772
0.0305 4.9999 0.0454 805
0.0315 4.9999 0.0454 762
0.0305 4.9989 0.0494 920
0.0325 4.9989 0.0474 777
0.0325 4.9989 0.0494 762
0.0345 4.9999 0.0424 782
0.0345 5.0009 0.0434 696
0.0375 4.9989 0.0424 805
0.0375 4.9989 0.0444 810
0.0345 4.9989 0.0474 967
0.0355 4.9989 0.0484 896
0.0375 4.9989 0.0494 591
0.0385 4.9989 0.0354 758
0.0385 4.9989 0.0374 824
0.0395 4.9989 0.0364 934
0.0415 4.9989 0.0354 729
0.0405 5.0009 0.0344 834
0.0395 4.9999 0.0384 882
0.0425 4.9989 0.0374 858
0.0425 4.9989 0.0404 715
0.0445 4.9999 0.0414 767
0.0385 4.9999 0.0454 824
0.0395 4.9989 0.0444 653
0.0405 4.9989 0.0444 662
0.0415 4.9989 0.0494 543
0.0415 4.9999 0.0494 443
0.0435 4.9989 0.0424 758
0.0435 4.9999 0.0434 682
0.0455 4.9989 0.0424 658
0.0455 4.9999 0.0434 696
0.0445 4.9989 0.0444 743
0.0455 4.9989 0.0444 710
0.0435 4.9989 0.0484 543
0.0445 4.9999 0.0464 653
0.0445 4.9989 0.0484 481
0.0305 4.9999 0.0504 848
0.0305 4.9989 0.0544 753
0.0305 4.9989 0.0574 729
0.0315 4.9999 0.0574 396
0.0335 5.0009 0.0554 577
0.0335 5.0009 0.0564 381
0.0345 5.0019 0.0504 786
0.0365 4.9999 0.0504 786
0.0375 4.9989 0.0514 581
0.0365 4.9989 0.0524 758
0.0365 5.0009 0.0504 877
0.0345 4.9999 0.0564 539
0.0355 5.0009 0.0574 358
0.0365 4.9989 0.0554 477
0.0375 4.9989 0.0544 339
0.0375 4.9989 0.0574 310
0.0375 5.0029 0.0554 305
0.0315 4.9999 0.0584 324
0.0305 4.9989 0.0614 315
0.0335 4.9989 0.0584 324
0.0335 4.9989 0.0614 196
0.0335 5.0009 0.0594 267
0.0325 5.0019 0.0614 286
0.0305 4.9989 0.0624 224
0.0315 5.0019 0.0624 262
0.0305 5.0009 0.0654 181
0.0305 5.0019 0.0654 177
0.0315 5.0009 0.0654 196
0.0325 4.9999 0.0644 243
0.0335 4.9999 0.0654 253
0.0335 5.0009 0.0634 181
0.0315 5.0029 0.0614 258
0.0315 5.0039 0.0624 196
0.0315 5.0029 0.0644 219
0.0345 5.0009 0.0604 229
0.0355 5.0009 0.0614 153
0.0365 4.9989 0.0594 243
0.0375 5.0009 0.0604 224
0.0375 5.0019 0.0614 181
0.0345 4.9999 0.0624 186
0.0345 4.9999 0.0634 200
0.0355 5.0019 0.0634 219
0.0355 5.0009 0.0644 196
0.0365 4.9989 0.0624 172
0.0375 4.9999 0.0654 181
0.0365 5.0019 0.0654 186
0.0375 5.0049 0.0634 162
0.0385 4.9989 0.0504 434
0.0385 4.9999 0.0504 562
0.0385 5.0009 0.0534 448
0.0415 4.9989 0.0504 391
0.0415 4.9989 0.0514 372
0.0385 4.9999 0.0574 300
0.0405 4.9989 0.0544 324
0.0415 4.9999 0.0554 196
0.0405 4.9989 0.0564 210
0.0405 4.9989 0.0574 219
0.0415 4.9999 0.0574 224
0.0405 5.0009 0.0554 267
0.0415 5.0009 0.0544 224
0.0425 4.9989 0.0504 429
0.0455 4.9989 0.0504 248
0.0455 4.9999 0.0514 200
0.0445 4.9999 0.0524 248
0.0435 4.9989 0.0544 186
0.0435 4.9989 0.0554 157
0.0425 5.0019 0.0554 186
0.0445 4.9999 0.0544 229
0.0445 4.9999 0.0554 167
0.0455 4.9989 0.0544 157
0.0445 5.0009 0.0554 191
0.0455 5.0019 0.0554 153
0.0445 5.0009 0.0574 153
0.0425 5.0049 0.0534 248
0.0445 5.0039 0.0504 243
0.0455 5.0039 0.0574 157
0.0385 4.9989 0.0584 234
0.0385 4.9989 0.0594 243
0.0395 4.9999 0.0594 186
0.0385 4.9989 0.0604 196
0.0395 4.9989 0.0604 186
0.0405 4.9989 0.0594 243
0.0415 4.9989 0.0584 181
0.0415 4.9999 0.0584 181
0.0385 4.9999 0.0624 181
0.0395 4.9989 0.0654 238
0.0385 5.0009 0.0634 210
0.0395 5.0009 0.0624 243
0.0395 5.0009 0.0644 153
0.0415 4.9999 0.0624 219
0.0405 5.0009 0.0644 205
0.0385 5.0029 0.0654 157
0.0405 5.0029 0.0634 238
0.0435 4.9999 0.0594 205
0.0425 4.9989 0.0614 200
0.0435 4.9989 0.0614 210
0.0445 4.9989 0.0584 129
0.0445 4.9989 0.0604 191
0.0455 4.9999 0.0604 186
0.0455 5.0009 0.0594 186
0.0455 5.0009 0.0614 224
0.0425 4.9999 0.0624 215
0.0435 4.9989 0.0654 115
0.0435 4.9999 0.0644 148
0.0435 5.0009 0.0634 162
0.0425 5.0009 0.0644 215
0.0445 4.9989 0.0624 248
0.0455 4.9989 0.0634 143
0.0455 4.9999 0.0624 162
0.0455 4.9999 0.0644 181
0.0425 5.0049 0.0594 181
0.0465 4.9959 0.0024 701
0.0475 4.9959 0.0034 834
0.0465 4.9959 0.0054 853
0.0465 4.9979 0.0024 748
0.0475 4.9969 0.0024 701
0.0485 4.9949 0.0024 720
0.0495 4.9959 0.0024 963
0.0495 4.9959 0.0044 1110
0.0485 4.9969 0.0034 653
0.0495 4.9979 0.0034 896
0.0485 4.9969 0.0054 724
0.0485 4.9979 0.0044 777
0.0495 4.9979 0.0054 929
0.0475 4.9949 0.0094 801
0.0465 4.9969 0.0074 701
0.0465 4.9979 0.0064 810
0.0475 4.9969 0.0064 753
0.0465 4.9969 0.0084 729
0.0475 4.9979 0.0084 877
0.0485 4.9949 0.0074 820
0.0495 4.9959 0.0074 786
0.0485 4.9979 0.0074 715
0.0495 4.9969 0.0064 810
0.0485 4.9969 0.0084 858
0.0485 4.9979 0.0094 715
0.0515 4.9939 0.0034 743
0.0505 4.9949 0.0024 824
0.0505 4.9949 0.0034 872
0.0505 4.9959 0.0034 905
0.0515 4.9949 0.0054 863
0.0505 4.9979 0.0054 948
0.0515 4.9979 0.0044 824
0.0525 4.9949 0.0024 948
0.0535 4.9969 0.0024 1125
0.0535 4.9979 0.0034 877
0.0525 4.9969 0.0054 758
0.0525 4.9979 0.0044 658
0.0535 4.9979 0.0044 729
0.0535 4.9979 0.0054 915
0.0505 4.9949 0.0064 801
0.0505 4.9979 0.0084 686
0.0515 4.9979 0.0084 729
0.0515 4.9979 0.0094 767
0.0525 4.9979 0.0064 1096
0.0525 4.9979 0.0074 758
0.0525 4.9969 0.0084 705
0.0535 4.9969 0.0094 782
0.0475 4.9929 0.0134 739
0.0475 4.9959 0.0104 691
0.0465 4.9969 0.0104 801
0.0465 4.9979 0.0114 758
0.0465 4.9969 0.0134 829
0.0475 4.9979 0.0124 796
0.0485 4.9979 0.0104 739
0.0495 4.9969 0.0104 891
0.0495 4.9979 0.0124 734
0.0475 4.9969 0.0144 734
0.0475 4.9969 0.0154 710
0.0465 4.9969 0.0164 858
0.0475 4.9969 0.0164 1177
0.0485 4.9959 0.0144 953
0.0495 4.9969 0.0144 801
0.0485 4.9969 0.0164 801
0.0485 4.9979 0.0174 843
0.0495 4.9969 0.0174 891
0.0495 4.9979 0.0164 920
0.0505 4.9959 0.0104 839
0.0515 4.9949 0.0104 829
0.0505 4.9969 0.0104 782
0.0505 4.9979 0.0124 843
0.0505 4.9979 0.0134 710
0.0515 4.9969 0.0134 853
0.0515 4.9979 0.0124 810
0.0525 4.9959 0.0104 596
0.0535 4.9959 0.0114 891
0.0535 4.9949 0.0134 834
0.0525 4.9969 0.0114 801
0.0535 4.9979 0.0114 863
0.0525 4.9969 0.0124 939
0.0525 4.9979 0.0134 939
0.0505 4.9969 0.0154 729
0.0515 4.9969 0.0144 858
0.0515 4.9969 0.0154 896
0.0505 4.9979 0.0174 877
0.0515 4.9969 0.0164 753
0.0525 4.9969 0.0154 810
0.0535 4.9979 0.0154 848
0.0525 4.9979 0.0164 839
0.0545 4.9959 0.0034 843
0.0555 4.9959 0.0044 729
0.0555 4.9969 0.0024 829
0.0555 4.9969 0.0034 791
0.0575 4.9959 0.0044 743
0.0565 4.9969 0.0024 944
0.0565 4.9979 0.0034 1082
0.0575 4.9969 0.0034 682
0.0565 4.9969 0.0044 848
0.0545 4.9959 0.0074 758
0.0555 4.9959 0.0084 739
0.0545 4.9979 0.0074 677
0.0545 4.9969 0.0084 805
0.0565 4.9959 0.0064 910
0.0575 4.9959 0.0064 715
0.0565 4.9959 0.0094 824
0.0575 4.9959 0.0094 829
0.0575 4.9979 0.0074 815
0.0565 4.9979 0.0084 767
0.0575 4.9979 0.0084 767
0.0585 4.9949 0.0054 762
0.0585 4.9969 0.0024 796
0.0585 4.9979 0.0034 658
0.0595 4.9969 0.0024 629
0.0585 4.9979 0.0044 672
0.0615 4.9959 0.0054 567
0.0605 4.9969 0.0034 505
0.0605 4.9969 0.0054 691
0.0595 4.9959 0.0064 729
0.0585 4.9959 0.0084 720
0.0585 4.9979 0.0064 762
0.0585 4.9979 0.0074 815
0.0595 4.9979 0.0074 682
0.0585 4.9969 0.0094 872
0.0595 4.9979 0.0094 729
0.0605 4.9959 0.0074 734
0.0605 4.9969 0.0074 786
0.0605 4.9979 0.0084 658
0.0615 4.9969 0.0094 520
0.0545 4.9969 0.0104 915
0.0545 4.9979 0.0104 796
0.0545 4.9979 0.0114 729
0.0555 4.9969 0.0124 720
0.0555 4.9979 0.0134 820
0.0565 4.9959 0.0114 791
0.0565 4.9949 0.0134 672
0.0565 4.9979 0.0114 758
0.0575 4.9969 0.0114 901
0.0575 4.9979 0.0124 829
0.0575 4.9979 0.0134 905
0.0545 4.9969 0.0144 762
0.0545 4.9979 0.0144 748
0.0555 4.9969 0.0154 767
0.0555 4.9979 0.0144 677
0.0555 4.9979 0.0154 724
0.0545 4.9969 0.0174 786
0.0565 4.9959 0.0154 720
0.0565 4.9979 0.0144 796
0.0575 4.9979 0.0154 672
0.0575 4.9969 0.0174 762
0.0585 4.9949 0.0114 767
0.0595 4.9959 0.0114 796
0.0585 4.9979 0.0114 891
0.0595 4.9969 0.0114 543
0.0585 4.9979 0.0134 1101
0.0595 4.9969 0.0134 667
0.0605 4.9969 0.0104 629
0.0605 4.9969 0.0114 662
0.0615 4.9979 0.0114 477
0.0605 4.9979 0.0124 677
0.0585 4.9969 0.0154 782
0.0585 4.9979 0.0144 1110
0.0595 4.9969 0.0154 615
0.0595 4.9979 0.0164 581
0.0615 4.9959 0.0164 410
0.0605 4.9969 0.0144 672
0.0605 4.9979 0.0154 520
0.0615 4.9969 0.0154 386
0.0605 4.9969 0.0164 624
0.0465 4.9939 0.0184 891
0.0465 4.9959 0.0184 977
0.0465 4.9969 0.0204 786
0.0475 4.9979 0.0204 672
0.0495 4.9959 0.0184 944
0.0495 4.9949 0.0204 634
0.0485 4.9969 0.0184 834
0.0485 4.9979 0.0194 772
0.0495 4.9969 0.0194 786
0.0485 4.9979 0.0204 872
0.0465 4.9949 0.0234 705
0.0475 4.9959 0.0254 896
0.0465 4.9969 0.0234 715
0.0475 4.9969 0.0224 748
0.0475 4.9969 0.0234 753
0.0465 4.9969 0.0254 653
0.0465 4.9979 0.0254 801
0.0475 4.9969 0.0244 801
0.0495 4.9959 0.0234 748
0.0495 4.9949 0.0254 772
0.0485 4.9969 0.0254 791
0.0485 4.9979 0.0244 867
0.0505 4.9959 0.0194 967
0.0505 4.9959 0.0214 782
0.0515 4.9969 0.0184 1115
0.0515 4.9979 0.0184 1172
0.0515 4.9969 0.0204 1067
0.0525 4.9959 0.0204 963
0.0535 4.9959 0.0204 982
0.0525 4.9969 0.0184 891
0.0535 4.9979 0.0184 867
0.0535 4.9979 0.0194 972
0.0505 4.9959 0.0234 805
0.0515 4.9949 0.0224 734
0.0505 4.9949 0.0254 824
0.0515 4.9949 0.0254 910
0.0515 4.9979 0.0254 772
0.0525 4.9949 0.0254 882
0.0525 4.9969 0.0234 901
0.0535 4.9969 0.0234 891
0.0535 4.9979 0.0254 882
0.0495 4.9939 0.0314 701
0.0475 4.9959 0.0274 715
0.0465 4.9959 0.0284 915
0.0465 4.9969 0.0274 944
0.0465 4.9969 0.0294 1091
0.0475 4.9969 0.0284 772
0.0475 4.9979 0.0294 1067
0.0495 4.9949 0.0274 758
0.0485 4.9979 0.0264 691
0.0495 4.9969 0.0294 734
0.0475 4.9959 0.0314 739
0.0465 4.9959 0.0334 858
0.0465 4.9969 0.0304 815
0.0465 4.9979 0.0304 924
0.0475 4.9969 0.0304 839
0.0475 4.9979 0.0324 863
0.0475 4.9979 0.0334 867
0.0485 4.9969 0.0314 662
0.0495 4.9979 0.0304 843
0.0485 4.9969 0.0334 920
0.0485 4.9979 0.0334 896
0.0495 4.9969 0.0334 753
0.0495 4.9979 0.0324 753
0.0505 4.9959 0.0264 739
0.0515 4.9959 0.0264 824
0.0505 4.9949 0.0284 886
0.0515 4.9959 0.0284 734
0.0505 4.9969 0.0264 877
0.0515 4.9969 0.0274 753
0.0505 4.9969 0.0294 786
0.0525 4.9959 0.0294 658
0.0535 4.9959 0.0294 677
0.0525 4.9979 0.0264 796
0.0535 4.9979 0.0264 758
0.0535 4.9979 0.0284 720
0.0535 4.9979 0.0294 748
0.0505 4.9959 0.0304 834
0.0515 4.9959 0.0304 863
0.0505 4.9969 0.0314 829
0.0515 4.9969 0.0314 734
0.0515 4.9969 0.0334 743
0.0525 4.9969 0.0324 691
0.0535 4.9969 0.0334 610
0.0545 4.9959 0.0184 834
0.0555 4.9969 0.0194 920
0.0545 4.9969 0.0214 858
0.0555 4.9979 0.0214 886
0.0565 4.9959 0.0184 767
0.0575 4.9959 0.0184 720
0.0565 4.9949 0.0204 672
0.0565 4.9969 0.0184 853
0.0575 4.9979 0.0194 639
0.0575 4.9969 0.0214 724
0.0545 4.9959 0.0234 805
0.0555 4.9959 0.0234 791
0.0555 4.9959 0.0254 758
0.0545 4.9969 0.0234 929
0.0555 4.9969 0.0224 867
0.0545 4.9969 0.0254 896
0.0545 4.9979 0.0244 867
0.0555 4.9979 0.0244 777
0.0565 4.9959 0.0254 658
0.0565 4.9969 0.0224 634
0.0565 4.9979 0.0234 753
0.0575 4.9969 0.0224 696
0.0565 4.9969 0.0254 705
0.0575 4.9979 0.0244 553
0.0575 4.9979 0.0254 591
0.0585 4.9969 0.0184 677
0.0595 4.9969 0.0194 410
0.0595 4.9979 0.0214 601
0.0605 4.9959 0.0194 386
0.0605 4.9979 0.0184 477
0.0615 4.9979 0.0184 400
0.0615 4.9979 0.0194 358
0.0605 4.9969 0.0214 586
0.0615 4.9969 0.0214 319
0.0615 4.9979 0.0204 315
0.0595 4.9959 0.0234 443
0.0585 4.9979 0.0234 653
0.0585 4.9979 0.0254 553
0.0595 4.9969 0.0254 424
0.0595 4.9979 0.0244 472
0.0605 4.9949 0.0234 358
0.0605 4.9969 0.0234 419
0.0615 4.9969 0.0254 215
0.0545 4.9979 0.0264 615
0.0545 4.9979 0.0284 720
0.0555 4.9979 0.0294 653
0.0575 4.9949 0.0294 391
0.0565 4.9969 0.0274 562
0.0575 4.9979 0.0274 515
0.0565 4.9969 0.0294 643
0.0545 4.9959 0.0314 496
0.0545 4.9949 0.0334 419
0.0545 4.9979 0.0304 586
0.0545 4.9969 0.0334 415
0.0555 4.9979 0.0324 481
0.0555 4.9979 0.0334 434
0.0565 4.9979 0.0304 658
0.0565 4.9979 0.0324 419
0.0565 4.9979 0.0334 429
0.0585 4.9939 0.0264 505
0.0585 4.9949 0.0284 467
0.0585 4.9969 0.0274 481
0.0595 4.9979 0.0264 267
0.0605 4.9959 0.0264 339
0.0605 4.9979 0.0284 248
0.0585 4.9949 0.0304 310
0.0585 4.9979 0.0304 353
0.0585 4.9969 0.0324 243
0.0595 4.9979 0.0324 229
0.0605 4.9959 0.0334 181
0.0605 4.9969 0.0304 267
0.0605 4.9979 0.0314 219
0.0615 4.9969 0.0304 210
0.0615 4.9969 0.0314 167
0.0615 4.9979 0.0324 191
0.0465 4.9989 0.0044 748
0.0475 4.9989 0.0044 805
0.0475 4.9999 0.0054 677
0.0475 4.9989 0.0074 896
0.0495 4.9989 0.0084 782
0.0525 4.9989 0.0034 758
0.0505 4.9999 0.0074 758
0.0515 4.9989 0.0064 729
0.0515 4.9989 0.0074 667
0.0535 4.9989 0.0064 853
0.0535 4.9989 0.0074 810
0.0535 4.9999 0.0094 924
0.0485 4.9989 0.0114 748
0.0495 4.9989 0.0104 824
0.0495 4.9999 0.0114 748
0.0485 4.9989 0.0124 848
0.0465 4.9989 0.0144 739
0.0465 4.9989 0.0154 820
0.0475 4.9999 0.0154 1086
0.0485 4.9989 0.0154 853
0.0495 4.9989 0.0154 858
0.0535 4.9989 0.0134 796
0.0505 4.9989 0.0144 691
0.0515 5.0009 0.0164 772
0.0525 4.9989 0.0144 948
0.0535 4.9989 0.0174 858
0.0535 4.9999 0.0164 786
0.0555 4.9989 0.0024 986
0.0545 4.9989 0.0054 672
0.0555 4.9999 0.0054 791
0.0575 4.9989 0.0024 615
0.0565 4.9989 0.0044 824
0.0555 4.9989 0.0074 867
0.0555 4.9989 0.0094 729
0.0555 5.0009 0.0064 910
0.0565 4.9989 0.0074 786
0.0595 4.9989 0.0034 696
0.0595 4.9999 0.0054 677
0.0595 5.0009 0.0044 843
0.0605 4.9989 0.0034 581
0.0615 4.9989 0.0034 558
0.0615 4.9999 0.0024 500
0.0605 4.9989 0.0054 772
0.0615 4.9999 0.0044 601
0.0595 4.9989 0.0094 772
0.0615 4.9989 0.0064 639
0.0605 4.9989 0.0094 682
0.0615 4.9989 0.0084 539
0.0615 4.9999 0.0084 520
0.0555 4.9999 0.0114 701
0.0545 4.9989 0.0124 791
0.0555 4.9989 0.0174 815
0.0545 5.0009 0.0164 805
0.0575 4.9989 0.0144 910
0.0565 4.9989 0.0164 720
0.0595 4.9989 0.0134 944
0.0615 4.9989 0.0134 529
0.0615 4.9999 0.0134 572
0.0585 4.9989 0.0154 820
0.0585 4.9989 0.0164 696
0.0595 4.9989 0.0174 667
0.0605 4.9989 0.0174 581
0.0615 5.0009 0.0174 458
0.0475 4.9989 0.0184 901
0.0475 4.9989 0.0204 686
0.0465 5.0009 0.0214 739
0.0485 4.9989 0.0214 901
0.0495 4.9989 0.0214 805
0.0475 5.0009 0.0224 796
0.0485 4.9989 0.0234 863
0.0485 4.9999 0.0224 824
0.0495 4.9999 0.0234 743
0.0495 4.9999 0.0254 910
0.0525 4.9989 0.0184 1148
0.0525 4.9989 0.0214 843
0.0535 4.9989 0.0214 901
0.0505 4.9989 0.0234 743
0.0515 4.9989 0.0234 743
0.0515 4.9999 0.0224 953
0.0525 4.9989 0.0224 791
0.0535 4.9999 0.0244 948
0.0485 4.9989 0.0274 648
0.0495 4.9989 0.0274 920
0.0485 4.9989 0.0284 696
0.0465 4.9989 0.0324 777
0.0485 4.9999 0.0304 839
0.0525 4.9999 0.0274 801
0.0525 4.9999 0.0284 705
0.0505 4.9999 0.0314 948
0.0505 4.9999 0.0334 810
0.0515 4.9989 0.0324 762
0.0525 4.9989 0.0304 805
0.0535 4.9989 0.0314 539
0.0525 4.9989 0.0334 720
0.0535 4.9999 0.0334 534
0.0545 4.9989 0.0194 924
0.0555 4.9989 0.0194 824
0.0545 5.0009 0.0214 1082
0.0565 4.9989 0.0234 720
0.0575 4.9999 0.0234 701
0.0595 4.9989 0.0184 581
0.0585 4.9999 0.0204 562
0.0595 4.9989 0.0204 648
0.0585 5.0009 0.0204 667
0.0605 4.9989 0.0204 491
0.0585 4.9999 0.0234 715
0.0615 4.9989 0.0244 215
0.0615 5.0019 0.0224 243
0.0605 5.0009 0.0244 343
0.0555 4.9989 0.0284 701
0.0555 5.0019 0.0274 653
0.0545 5.0009 0.0284 672
0.0575 4.9989 0.0284 520
0.0555 4.9989 0.0304 686
0.0555 5.0019 0.0304 539
0.0575 5.0009 0.0304 281
0.0575 5.0009 0.0324 277
0.0575 5.0019 0.0334 281
0.0595 4.9989 0.0264 339
0.0585 4.9999 0.0294 481
0.0595 4.9999 0.0284 229
0.0595 4.9999 0.0294 296
0.0605 4.9989 0.0264 405
0.0615 4.9989 0.0284 205
0.0615 4.9999 0.0284 191
0.0615 5.0009 0.0264 248
0.0615 5.0019 0.0264 281
0.0605 5.0019 0.0284 262
0.0585 4.9999 0.0334 253
0.0595 5.0009 0.0334 229
0.0605 4.9989 0.0334 205
0.0615 4.9999 0.0334 177
0.0595 5.0049 0.0314 219
0.0635 4.9949 0.0024 462
0.0625 4.9959 0.0054 462
0.0625 4.9969 0.0034 491
0.0625 4.9979 0.0024 443
0.0635 4.9969 0.0034 500
0.0625 4.9969 0.0044 529
0.0635 4.9979 0.0054 362
0.0645 4.9979 0.0034 386
0.0655 4.9969 0.0034 339
0.0655 4.9979 0.0024 353
0.0655 4.9979 0.0054 253
0.0625 4.9959 0.0094 458
0.0625 4.9969 0.0074 615
0.0635 4.9979 0.0074 405
0.0635 4.9969 0.0094 348
0.0645 4.9969 0.0074 372
0.0645 4.9979 0.0074 310
0.0645 4.9979 0.0084 300
0.0655 4.9979 0.0094 267
0.0685 4.9939 0.0034 177
0.0665 4.9969 0.0024 319
0.0665 4.9979 0.0024 277
0.0665 4.9979 0.0064 181
0.0665 4.9969 0.0084 267
0.0625 4.9939 0.0114 381
0.0635 4.9939 0.0154 300
0.0635 4.9949 0.0114 286
0.0635 4.9959 0.0114 358
0.0635 4.9969 0.0134 410
0.0655 4.9959 0.0114 248
0.0645 4.9959 0.0124 334
0.0655 4.9969 0.0134 305
0.0625 4.9979 0.0154 405
0.0625 4.9979 0.0164 353
0.0635 4.9979 0.0174 305
0.0645 4.9959 0.0174 210
0.0645 4.9969 0.0154 315
0.0665 4.9959 0.0114 215
0.0665 4.9979 0.0134 238
0.0695 4.9979 0.0124 234
0.0695 4.9949 0.0154 215
0.0685 4.9979 0.0144 172
0.0735 4.9929 0.0044 191
0.0725 4.9939 0.0074 205
0.0705 4.9969 0.0034 181
0.0715 4.9969 0.0024 177
0.0705 4.9969 0.0054 224
0.0735 4.9979 0.0024 215
0.0725 4.9979 0.0044 243
0.0715 4.9969 0.0064 196
0.0725 4.9979 0.0084 162
0.0735 4.9969 0.0084 229
0.0745 4.9979 0.0024 253
0.0745 4.9969 0.0044 210
0.0745 4.9979 0.0044 200
0.0765 4.9969 0.0034 177
0.0745 4.9979 0.0074 215
0.0755 4.9969 0.0064 238
0.0745 4.9979 0.0094 210
0.0765 4.9969 0.0074 191
0.0775 4.9969 0.0064 248
0.0705 4.9979 0.0134 238
0.0715 4.9979 0.0164 148
0.0735 4.9949 0.0174 181
0.0725 4.9969 0.0174 157
0.0745 4.9979 0.0114 181
0.0755 4.9969 0.0114 191
0.0755 4.9979 0.0134 215
0.0765 4.9969 0.0104 196
0.0745 4.9969 0.0144 205
0.0775 4.9969 0.0154 215
0.0625 4.9979 0.0184 467
0.0635 4.9969 0.0194 243
0.0635 4.9979 0.0184 267
0.0635 4.9969 0.0214 258
0.0655 4.9969 0.0194 210
0.0655 4.9959 0.0224 167
0.0655 4.9959 0.0254 186
0.0645 4.9979 0.0224 238
0.0665 4.9969 0.0184 181
0.0675 4.9979 0.0214 210
0.0665 4.9979 0.0224 281
0.0665 4.9979 0.0234 172
0.0695 4.9959 0.0254 224
0.0635 4.9919 0.0294 162
0.0655 4.9939 0.0334 196
0.0655 4.9979 0.0264 162
0.0645 4.9969 0.0294 196
0.0625 4.9969 0.0324 148
0.0665 4.9939 0.0294 181
0.0685 4.9939 0.0314 181
0.0675 4.9959 0.0264 205
0.0665 4.9969 0.0274 177
0.0685 4.9959 0.0264 210
0.0695 4.9959 0.0264 196
0.0685 4.9979 0.0284 181
0.0665 4.9959 0.0304 181
0.0675 4.9979 0.0304 200
0.0685 4.9959 0.0334 181
0.0705 4.9959 0.0184 219
0.0705 4.9979 0.0184 172
0.0705 4.9969 0.0204 162
0.0725 4.9969 0.0214 172
0.0705 4.9949 0.0254 219
0.0705 4.9969 0.0234 262
0.0735 4.9959 0.0234 219
0.0725 4.9979 0.0254 215
0.0735 4.9979 0.0254 215
0.0745 4.9979 0.0204 243
0.0755 4.9969 0.0214 219
0.0745 4.9979 0.0224 196
0.0775 4.9959 0.0224 258
0.0765 4.9979 0.0234 210
0.0735 4.9979 0.0264 219
0.0705 4.9979 0.0304 181
0.0735 4.9969 0.0314 186
0.0755 4.9969 0.0284 172
0.0775 4.9969 0.0274 196
0.0765 4.9969 0.0284 238
0.0755 4.9959 0.0304 215
0.0745 4.9979 0.0304 200
0.0755 4.9969 0.0324 167
0.0775 4.9959 0.0304 157
0.0775 4.9949 0.0324 219
0.0775 4.9969 0.0314 200
0.0635 4.9989 0.0044 439
0.0645 4.9989 0.0054 315
0.0655 4.9989 0.0044 319
0.0625 4.9989 0.0064 539
0.0635 4.9999 0.0064 400
0.0625 4.9999 0.0084 505
0.0635 4.9989 0.0094 343
0.0655 4.9989 0.0074 253
0.0655 4.9989 0.0094 262
0.0655 5.0019 0.0064 253
0.0665 4.9989 0.0044 267
0.0665 4.9999 0.0044 219
0.0675 4.9989 0.0044 286
0.0675 5.0019 0.0024 177
0.0675 5.0009 0.0054 191
0.0695 4.9989 0.0034 191
0.0695 4.9999 0.0024 181
0.0685 4.9989 0.0054 219
0.0695 4.9999 0.0044 229
0.0695 4.9999 0.0054 191
0.0685 5.0009 0.0054 205
0.0665 4.9989 0.0094 234
0.0675 5.0009 0.0074 229
0.0675 5.0019 0.0094 186
0.0685 4.9989 0.0074 215
0.0685 4.9999 0.0074 191
0.0695 4.9989 0.0064 181
0.0695 4.9989 0.0074 153
0.0685 4.9999 0.0094 210
0.0695 4.9999 0.0084 177
0.0675 5.0049 0.0034 253
0.0675 5.0029 0.0064 215
0.0665 5.0039 0.0094 196
0.0685 5.0029 0.0084 215
0.0625 4.9999 0.0114 415
0.0625 4.9989 0.0134 505
0.0645 4.9999 0.0104 324
0.0655 4.9999 0.0114 253
0.0645 4.9989 0.0124 300
0.0645 5.0009 0.0104 329
0.0625 4.9989 0.0144 520
0.0625 4.9989 0.0164 305
0.0635 4.9989 0.0164 305
0.0645 4.9989 0.0144 367
0.0655 4.9999 0.0154 315
0.0645 4.9989 0.0164 253
0.0655 4.9999 0.0164 277
0.0655 5.0009 0.0174 200
0.0655 5.0049 0.0144 262
0.0675 4.9999 0.0104 196
0.0675 4.9989 0.0124 177
0.0665 5.0009 0.0114 234
0.0675 5.0019 0.0104 191
0.0685 4.9989 0.0104 200
0.0695 4.9999 0.0104 191
0.0685 5.0019 0.0114 162
0.0695 5.0009 0.0134 143
0.0665 4.9989 0.0144 219
0.0675 4.9999 0.0154 196
0.0675 4.9989 0.0164 200
0.0665 5.0009 0.0154 238
0.0665 5.0009 0.0164 243
0.0675 5.0009 0.0174 200
0.0685 4.9989 0.0174 205
0.0695 4.9989 0.0164 253
0.0695 5.0019 0.0174 191
0.0675 5.0029 0.0134 215
0.0675 5.0039 0.0134 215
0.0685 5.0049 0.0124 157
0.0685 5.0029 0.0154 177
0.0685 5.0039 0.0144 191
0.0695 5.0059 0.0144 124
0.0705 4.9999 0.0024 153
0.0715 5.0019 0.0034 177
0.0705 5.0009 0.0044 181
0.0715 5.0009 0.0054 229
0.0715 5.0019 0.0044 200
0.0725 4.9999 0.0024 162
0.0735 4.9999 0.0024 200
0.0725 5.0009 0.0034 191
0.0725 5.0009 0.0054 181
0.0715 4.9999 0.0084 234
0.0705 5.0009 0.0064 210
0.0705 5.0019 0.0094 157
0.0725 4.9999 0.0064 219
0.0735 4.9999 0.0064 215
0.0725 4.9999 0.0094 200
0.0735 4.9999 0.0094 224
0.0705 5.0029 0.0074 234
0.0705 5.0029 0.0094 172
0.0735 5.0029 0.0064 253
0.0735 5.0029 0.0074 219
0.0755 4.9989 0.0034 153
0.0755 4.9999 0.0024 205
0.0755 4.9989 0.0054 219
0.0755 4.9999 0.0044 181
0.0745 5.0009 0.0024 224
0.0775 4.9989 0.0024 296
0.0765 4.9999 0.0054 219
0.0775 5.0009 0.0024 258
0.0765 5.0009 0.0054 186
0.0775 5.0019 0.0044 200
0.0745 4.9989 0.0064 224
0.0745 4.9989 0.0094 196
0.0755 5.0019 0.0094 162
0.0765 4.9989 0.0074 219
0.0775 4.9989 0.0064 210
0.0775 4.9999 0.0074 196
0.0775 4.9999 0.0094 219
0.0755 5.0039 0.0084 177
0.0765 5.0039 0.0084 153
0.0775 5.0029 0.0084 162
0.0705 4.9999 0.0114 272
0.0715 4.9989 0.0124 177
0.0715 5.0009 0.0104 219
0.0715 5.0019 0.0104 210
0.0715 5.0019 0.0124 229
0.0715 5.0019 0.0134 177
0.0725 4.9999 0.0104 205
0.0725 4.9999 0.0114 181
0.0735 4.9999 0.0134 210
0.0735 5.0019 0.0114 181
0.0705 4.9989 0.0144 143
0.0705 5.0009 0.0144 143
0.0715 5.0009 0.0154 205
0.0715 5.0009 0.0174 177
0.0725 4.9989 0.0154 281
0.0735 4.9999 0.0154 248
0.0725 4.9989 0.0164 238
0.0725 5.0019 0.0144 157
0.0735 5.0009 0.0154 224
0.0705 5.0049 0.0114 229
0.0735 5.0039 0.0104 177
0.0735 5.0039 0.0124 148
0.0725 5.0059 0.0124 191
0.0705 5.0039 0.0164 200
0.0745 4.9989 0.0134 205
0.0745 5.0019 0.0114 153
0.0755 5.0009 0.0104 177
0.0755 5.0009 0.0134 181
0.0755 5.0019 0.0124 253
0.0775 4.9989 0.0104 219
0.0765 4.9999 0.0124 157
0.0765 5.0019 0.0104 186
0.0775 5.0019 0.0114 205
0.0765 5.0009 0.0124 167
0.0775 5.0019 0.0134 224
0.0745 4.9989 0.0154 210
0.0755 4.9999 0.0154 219
0.0745 4.9999 0.0164 224
0.0755 4.9989 0.0174 177
0.0755 5.0009 0.0154 196
0.0765 4.9999 0.0144 167
0.0765 5.0009 0.0144 196
0.0775 5.0009 0.0154 196
0.0765 5.0009 0.0174 205
0.0775 5.0029 0.0124 224
0.0775 5.0029 0.0174 196
0.0765 5.0049 0.0164 219
0.0625 4.9989 0.0184 424
0.0625 4.9989 0.0204 343
0.0625 4.9989 0.0214 272
0.0635 5.0009 0.0204 262
0.0645 4.9989 0.0184 315
0.0655 4.9989 0.0184 172
0.0645 4.9989 0.0214 219
0.0655 4.9999 0.0204 277
0.0645 5.0019 0.0194 234
0.0655 5.0009 0.0214 305
0.0635 4.9999 0.0234 181
0.0625 4.9989 0.0254 181
0.0625 5.0009 0.0234 181
0.0635 5.0009 0.0244 191
0.0635 5.0019 0.0254 258
0.0645 4.9989 0.0234 181
0.0645 5.0009 0.0234 162
0.0645 5.0019 0.0244 172
0.0625 5.0029 0.0254 210
0.0625 5.0049 0.0224 267
0.0655 5.0029 0.0244 167
0.0665 4.9999 0.0204 258
0.0665 5.0009 0.0184 191
0.0675 5.0009 0.0194 181
0.0675 5.0019 0.0184 210
0.0665 5.0019 0.0204 205
0.0675 5.0019 0.0204 172
0.0685 4.9999 0.0194 253
0.0685 4.9999 0.0214 157
0.0685 5.0009 0.0184 215
0.0695 5.0009 0.0184 162
0.0675 4.9999 0.0224 219
0.0665 4.9989 0.0254 148
0.0675 4.9989 0.0254 200
0.0665 5.0009 0.0254 157
0.0675 5.0019 0.0244 229
0.0695 4.9999 0.0234 253
0.0685 4.9989 0.0244 191
0.0695 4.9999 0.0244 267
0.0685 5.0009 0.0234 162
0.0685 5.0019 0.0234 210
0.0685 5.0019 0.0254 219
0.0695 5.0029 0.0194 167
0.0685 5.0029 0.0204 181
0.0695 5.0029 0.0204 148
0.0695 5.0039 0.0214 172
0.0665 5.0039 0.0224 219
0.0625 4.9999 0.0294 205
0.0635 4.9999 0.0284 172
0.0635 4.9999 0.0294 162
0.0625 5.0009 0.0274 215
0.0655 4.9989 0.0294 191
0.0645 5.0009 0.0264 281
0.0655 5.0009 0.0284 177
0.0655 5.0009 0.0294 186
0.0625 4.9999 0.0304 229
0.0635 4.9999 0.0314 191
0.0635 4.9989 0.0334 248
0.0655 4.9989 0.0324 215
0.0655 5.0009 0.0314 267
0.0645 5.0009 0.0334 196
0.0635 5.0029 0.0264 243
0.0625 5.0029 0.0284 229
0.0635 5.0049 0.0274 196
0.0655 5.0039 0.0264 153
0.0645 5.0039 0.0284 210
0.0625 5.0039 0.0304 181
0.0625 5.0049 0.0334 205
0.0645 5.0029 0.0304 172
0.0645 5.0029 0.0334 238
0.0645 5.0049 0.0314 196
0.0675 4.9989 0.0264 219
0.0665 5.0009 0.0274 157
0.0675 5.0009 0.0284 157
0.0675 5.0009 0.0294 143
0.0685 5.0009 0.0274 238
0.0695 5.0009 0.0274 205
0.0695 5.0009 0.0284 172
0.0665 4.9989 0.0304 219
0.0665 4.9989 0.0334 219
0.0665 5.0009 0.0324 262
0.0675 5.0009 0.0324 181
0.0695 5.0009 0.0304 186
0.0695 5.0019 0.0304 162
0.0675 5.0029 0.0304 196
0.0675 5.0029 0.0324 205
0.0685 5.0029 0.0304 157
0.0685 5.0039 0.0334 215
0.0695 5.0029 0.0324 191
0.0715 4.9989 0.0184 186
0.0705 4.9999 0.0204 162
0.0715 5.0009 0.0194 196
0.0715 5.0009 0.0204 210
0.0725 5.0019 0.0184 172
0.0725 5.0019 0.0194 210
0.0735 5.0009 0.0184 172
0.0735 5.0009 0.0194 200
0.0725 5.0019 0.0204 196
0.0705 4.9989 0.0224 186
0.0715 4.9989 0.0234 196
0.0705 4.9999 0.0254 258
0.0705 5.0009 0.0224 200
0.0715 5.0009 0.0234 205
0.0715 5.0009 0.0254 224
0.0725 4.9999 0.0224 205
0.0725 4.9999 0.0244 181
0.0735 4.9999 0.0244 215
0.0735 5.0019 0.0224 205
0.0715 5.0029 0.0214 224
0.0735 5.0029 0.0204 210
0.0735 5.0049 0.0214 215
0.0725 5.0029 0.0234 243
0.0745 4.9999 0.0184 162
0.0755 4.9989 0.0184 196
0.0745 5.0009 0.0204 238
0.0755 5.0019 0.0204 234
0.0765 4.9999 0.0194 177
0.0775 4.9999 0.0184 200
0.0765 5.0009 0.0184 196
0.0775 5.0009 0.0194 205
0.0765 5.0009 0.0214 224
0.0745 4.9989 0.0224 219
0.0755 4.9999 0.0224 234
0.0755 4.9999 0.0234 248
0.0755 4.9989 0.0254 210
0.0745 5.0009 0.0234 200
0.0745 5.0009 0.0254 200
0.0755 5.0019 0.0244 215
0.0765 4.9999 0.0244 253
0.0775 4.9989 0.0244 234
0.0775 5.0019 0.0234 258
0.0745 5.0039 0.0184 191
0.0755 5.0029 0.0194 191
0.0775 5.0039 0.0204 157
0.0775 5.0039 0.0214 181
0.0765 5.0039 0.0234 200
0.0705 4.9989 0.0274 181
0.0715 4.9989 0.0274 238
0.0705 4.9999 0.0294 200
0.0715 5.0009 0.0264 167
0.0725 4.9989 0.0264 191
0.0725 4.9989 0.0274 243
0.0725 4.9989 0.0284 196
0.0735 4.9989 0.0294 181
0.0735 5.0019 0.0274 234
0.0705 4.9989 0.0304 172
0.0715 4.9989 0.0324 186
0.0705 5.0019 0.0324 186
0.0725 4.9989 0.0334 172
0.0725 5.0019 0.0304 181
0.0725 5.0009 0.0334 238
0.0735 5.0009 0.0334 224
0.0735 5.0019 0.0324 186
0.0705 5.0029 0.0274 177
0.0715 5.0029 0.0264 167
0.0715 5.0029 0.0284 224
0.0715 5.0029 0.0304 191
0.0705 5.0039 0.0334 157
0.0725 5.0029 0.0314 210
0.0735 5.0029 0.0304 258
0.0745 5.0009 0.0274 177
0.0755 5.0009 0.0264 215
0.0775 4.9999 0.0294 200
0.0765 5.0009 0.0264 200
0.0765 5.0019 0.0264 238
0.0775 5.0009 0.0264 210
0.0765 5.0009 0.0294 205
0.0745 4.9989 0.0304 253
0.0745 4.9989 0.0324 224
0.0745 4.9989 0.0334 181
0.0755 4.9989 0.0334 172
0.0755 5.0009 0.0304 229
0.0765 4.9999 0.0304 162
0.0765 4.9989 0.0334 143
0.0775 4.9989 0.0334 215
0.0745 5.0039 0.0274 177
0.0755 5.0029 0.0294 157
0.0745 5.0049 0.0294 248
0.0775 5.0029 0.0264 200
0.0765 5.0029 0.0314 153
0.0765 5.0029 0.0334 196
0.0475 4.9949 0.0354 767
0.0475 4.9979 0.0344 762
0.0465 4.9969 0.0364 801
0.0465 4.9969 0.0374 801
0.0485 4.9949 0.0354 648
0.0495 4.9959 0.0344 762
0.0495 4.9959 0.0364 691
0.0485 4.9969 0.0354 720
0.0495 4.9979 0.0354 686
0.0495 4.9979 0.0374 543
0.0465 4.9959 0.0414 682
0.0465 4.9979 0.0384 791
0.0465 4.9979 0.0394 834
0.0475 4.9979 0.0384 753
0.0465 4.9979 0.0404 762
0.0475 4.9979 0.0404 510
0.0475 4.9979 0.0414 472
0.0485 4.9969 0.0414 672
0.0485 4.9979 0.0404 758
0.0495 4.9969 0.0404 539
0.0495 4.9969 0.0414 439
0.0505 4.9959 0.0354 786
0.0515 4.9959 0.0344 777
0.0505 4.9949 0.0364 658
0.0505 4.9979 0.0344 801
0.0515 4.9969 0.0354 620
0.0515 4.9969 0.0364 500
0.0525 4.9959 0.0354 581
0.0525 4.9969 0.0344 705
0.0535 4.9979 0.0344 467
0.0525 4.9979 0.0364 534
0.0525 4.9979 0.0374 534
0.0505 4.9959 0.0384 500
0.0515 4.9949 0.0384 396
0.0515 4.9949 0.0404 343
0.0505 4.9969 0.0394 434
0.0515 4.9979 0.0384 419
0.0505 4.9969 0.0404 415
0.0505 4.9979 0.0414 305
0.0515 4.9979 0.0414 258
0.0535 4.9959 0.0414 224
0.0525 4.9969 0.0394 410
0.0525 4.9979 0.0394 362
0.0465 4.9939 0.0474 329
0.0465 4.9949 0.0444 515
0.0475 4.9959 0.0454 310
0.0465 4.9979 0.0424 543
0.0475 4.9979 0.0424 453
0.0465 4.9979 0.0454 562
0.0495 4.9959 0.0454 286
0.0495 4.9979 0.0424 343
0.0495 4.9979 0.0434 339
0.0485 4.9979 0.0454 391
0.0465 4.9969 0.0464 367
0.0475 4.9979 0.0464 343
0.0475 4.9979 0.0474 324
0.0465 4.9969 0.0494 353
0.0465 4.9979 0.0494 267
0.0485 4.9959 0.0484 267
0.0485 4.9979 0.0474 277
0.0485 4.9969 0.0494 253
0.0495 4.9979 0.0494 224
0.0535 4.9939 0.0444 224
0.0505 4.9969 0.0434 315
0.0505 4.9979 0.0424 300
0.0505 4.9979 0.0454 339
0.0515 4.9969 0.0444 196
0.0525 4.9979 0.0444 315
0.0515 4.9969 0.0464 191
0.0535 4.9959 0.0464 224
0.0525 4.9969 0.0494 196
0.0535 4.9979 0.0484 253
0.0555 4.9939 0.0414 215
0.0565 4.9919 0.0404 215
0.0545 4.9969 0.0364 391
0.0545 4.9969 0.0374 277
0.0555 4.9979 0.0374 243
0.0565 4.9979 0.0344 372
0.0575 4.9969 0.0344 253
0.0555 4.9979 0.0394 181
0.0575 4.9959 0.0394 162
0.0565 4.9979 0.0414 253
0.0575 4.9979 0.0414 205
0.0605 4.9939 0.0404 172
0.0595 4.9959 0.0354 172
0.0615 4.9979 0.0344 148
0.0595 4.9959 0.0384 162
0.0585 4.9949 0.0414 177
0.0585 4.9969 0.0384 191
0.0585 4.9979 0.0394 167
0.0615 4.9949 0.0404 153
0.0575 4.9939 0.0484 177
0.0545 4.9979 0.0424 224
0.0555 4.9979 0.0434 243
0.0555 4.9979 0.0454 162
0.0565 4.9979 0.0424 210
0.0565 4.9969 0.0444 224
0.0545 4.9959 0.0484 219
0.0555 4.9979 0.0474 215
0.0565 4.9979 0.0464 200
0.0565 4.9979 0.0474 177
0.0565 4.9969 0.0494 153
0.0565 4.9979 0.0494 153
0.0585 4.9959 0.0444 162
0.0605 4.9969 0.0434 205
0.0615 4.9979 0.0434 167
0.0595 4.9969 0.0494 196
0.0605 4.9979 0.0464 200
0.0615 4.9979 0.0464 143
0.0615 4.9979 0.0494 215
0.0475 4.9919 0.0564 181
0.0465 4.9959 0.0534 162
0.0495 4.9969 0.0514 205
0.0495 4.9979 0.0514 157
0.0485 4.9969 0.0524 153
0.0465 4.9959 0.0544 157
0.0495 4.9959 0.0554 172
0.0495 4.9969 0.0544 224
0.0495 4.9969 0.0564 186
0.0515 4.9929 0.0504 167
0.0505 4.9979 0.0504 162
0.0505 4.9969 0.0544 181
0.0505 4.9979 0.0574 215
0.0535 4.9949 0.0544 205
0.0535 4.9979 0.0554 277
0.0525 4.9979 0.0574 181
0.0535 4.9969 0.0574 215
0.0465 4.9959 0.0614 181
0.0475 4.9979 0.0584 138
0.0475 4.9979 0.0604 172
0.0495 4.9949 0.0584 138
0.0495 4.9959 0.0614 124
0.0495 4.9969 0.0594 153
0.0495 4.9979 0.0604 143
0.0465 4.9949 0.0624 191
0.0475 4.9959 0.0654 153
0.0465 4.9969 0.0654 200
0.0485 4.9959 0.0654 115
0.0495 4.9949 0.0644 153
0.0505 4.9949 0.0584 162
0.0515 4.9969 0.0604 219
0.0525 4.9979 0.0604 143
0.0505 4.9969 0.0624 177
0.0505 4.9969 0.0654 138
0.0525 4.9979 0.0624 134
0.0525 4.9969 0.0644 138
0.0565 4.9939 0.0514 186
0.0545 4.9949 0.0524 162
0.0545 4.9979 0.0554 172
0.0555 4.9979 0.0554 153
0.0555 4.9969 0.0574 162
0.0575 4.9959 0.0574 191
0.0565 4.9969 0.0554 196
0.0565 4.9969 0.0564 205
0.0575 4.9969 0.0574 200
0.0595 4.9969 0.0514 186
0.0595 4.9979 0.0504 153
0.0615 4.9969 0.0504 157
0.0585 4.9959 0.0554 177
0.0585 4.9959 0.0574 196
0.0575 4.9909 0.0634 172
0.0555 4.9969 0.0594 172
0.0545 4.9979 0.0604 157
0.0565 4.9949 0.0614 210
0.0555 4.9979 0.0634 224
0.0555 4.9969 0.0654 205
0.0585 4.9979 0.0594 229
0.0595 4.9979 0.0584 186
0.0605 4.9949 0.0594 172
0.0615 4.9979 0.0614 153
0.0595 4.9979 0.0634 200
0.0615 4.9969 0.0624 191
0.0615 4.9979 0.0644 172
0.0465 4.9989 0.0344 977
0.0465 4.9999 0.0354 777
0.0475 4.9999 0.0364 677
0.0485 4.9989 0.0374 691
0.0485 4.9999 0.0374 734
0.0475 4.9989 0.0404 772
0.0485 4.9989 0.0384 686
0.0495 5.0009 0.0394 477
0.0505 4.9989 0.0374 543
0.0535 4.9999 0.0354 453
0.0535 4.9989 0.0374 291
0.0535 4.9999 0.0364 324
0.0535 4.9999 0.0384 277
0.0525 4.9999 0.0404 319
0.0535 4.9999 0.0404 258
0.0475 4.9989 0.0444 434
0.0485 4.9989 0.0424 500
0.0485 4.9989 0.0434 410
0.0495 4.9999 0.0434 329
0.0485 4.9999 0.0444 405
0.0475 4.9999 0.0484 258
0.0465 5.0009 0.0474 348
0.0475 5.0009 0.0494 243
0.0485 4.9999 0.0464 253
0.0495 4.9999 0.0464 219
0.0495 4.9999 0.0474 196
0.0495 5.0019 0.0494 186
0.0515 4.9989 0.0424 291
0.0515 4.9989 0.0434 267
0.0515 5.0019 0.0454 181
0.0525 4.9999 0.0424 315
0.0535 4.9989 0.0424 291
0.0535 4.9989 0.0434 229
0.0525 5.0019 0.0424 281
0.0525 5.0019 0.0454 200
0.0505 4.9989 0.0464 243
0.0515 4.9989 0.0474 186
0.0505 4.9999 0.0484 191
0.0515 4.9999 0.0494 172
0.0515 5.0019 0.0484 234
0.0535 4.9999 0.0464 277
0.0535 4.9999 0.0494 243
0.0525 5.0009 0.0464 177
0.0525 5.0009 0.0474 172
0.0525 5.0019 0.0474 191
0.0535 5.0029 0.0454 219
0.0555 4.9989 0.0344 339
0.0555 4.9999 0.0354 334
0.0555 4.9999 0.0364 281
0.0565 4.9999 0.0354 243
0.0575 4.9989 0.0344 200
0.0565 4.9989 0.0364 229
0.0575 4.9989 0.0364 234
0.0575 4.9999 0.0374 205
0.0565 5.0009 0.0374 248
0.0545 4.9989 0.0384 253
0.0545 4.9989 0.0414 229
0.0555 5.0019 0.0394 234
0.0545 5.0019 0.0404 243
0.0575 4.9999 0.0394 181
0.0565 5.0009 0.0394 157
0.0565 5.0019 0.0384 238
0.0575 5.0019 0.0414 186
0.0555 5.0029 0.0414 191
0.0585 4.9989 0.0344 253
0.0585 4.9989 0.0374 238
0.0595 4.9989 0.0364 205
0.0595 4.9989 0.0374 196
0.0605 4.9989 0.0364 143
0.0605 4.9999 0.0374 200
0.0615 4.9999 0.0364 181
0.0615 5.0009 0.0354 129
0.0585 5.0009 0.0404 153
0.0615 4.9989 0.0414 191
0.0615 5.0009 0.0384 186
0.0615 5.0009 0.0394 177
0.0585 5.0029 0.0354 172
0.0585 5.0029 0.0364 205
0.0595 5.0059 0.0344 172
0.0595 5.0029 0.0394 177
0.0595 5.0029 0.0414 186
0.0605 5.0029 0.0384 172
0.0605 5.0039 0.0414 153
0.0545 5.0009 0.0434 196
0.0545 5.0009 0.0444 191
0.0555 5.0019 0.0444 191
0.0575 4.9999 0.0444 334
0.0575 5.0019 0.0454 305
0.0545 4.9999 0.0464 234
0.0545 5.0019 0.0474 281
0.0555 5.0019 0.0464 181
0.0555 5.0019 0.0494 162
0.0575 4.9989 0.0494 162
0.0575 5.0019 0.0464 219
0.0565 5.0029 0.0444 224
0.0575 5.0049 0.0434 177
0.0555 5.0029 0.0484 162
0.0575 5.0039 0.0474 196
0.0595 4.9999 0.0424 191
0.0585 4.9999 0.0444 234
0.0595 4.9989 0.0454 191
0.0595 4.9999 0.0444 267
0.0595 5.0009 0.0434 234
0.0605 4.9989 0.0454 229
0.0605 4.9999 0.0444 243
0.0615 4.9999 0.0444 153
0.0605 5.0019 0.0424 186
0.0615 5.0009 0.0424 177
0.0615 5.0019 0.0444 162
0.0585 4.9989 0.0474 186
0.0585 4.9999 0.0494 196
0.0585 5.0019 0.0464 329
0.0595 5.0019 0.0484 177
0.0605 4.9999 0.0484 200
0.0615 4.9989 0.0484 162
0.0605 5.0009 0.0474 215
0.0615 5.0009 0.0464 138
0.0585 5.0039 0.0424 148
0.0595 5.0029 0.0464 181
0.0465 4.9989 0.0514 181
0.0475 4.9989 0.0504 200
0.0465 4.9999 0.0524 177
0.0475 5.0009 0.0514 167
0.0485 4.9989 0.0504 272
0.0485 5.0009 0.0524 196
0.0495 5.0009 0.0524 153
0.0495 5.0009 0.0534 181
0.0465 4.9999 0.0554 153
0.0475 5.0009 0.0544 162
0.0475 5.0009 0.0554 162
0.0465 5.0009 0.0574 153
0.0465 5.0019 0.0574 172
0.0475 5.0009 0.0574 172
0.0485 5.0009 0.0544 153
0.0485 5.0009 0.0574 162
0.0475 5.0049 0.0524 153
0.0485 5.0029 0.0554 172
0.0485 5.0029 0.0564 167
0.0505 4.9999 0.0524 148
0.0515 5.0019 0.0514 172
0.0505 5.0009 0.0534 153
0.0515 5.0009 0.0524 153
0.0525 4.9999 0.0514 177
0.0525 4.9999 0.0534 177
0.0535 4.9989 0.0534 153
0.0535 5.0009 0.0504 177
0.0535 5.0009 0.0534 157
0.0505 4.9999 0.0554 224
0.0515 4.9999 0.0544 172
0.0515 4.9999 0.0554 153
0.0515 4.9999 0.0564 138
0.0505 5.0009 0.0564 243
0.0525 4.9999 0.0554 167
0.0525 4.9989 0.0574 167
0.0535 5.0029 0.0514 167
0.0525 5.0039 0.0524 181
0.0515 5.0029 0.0574 162
0.0465 4.9999 0.0594 205
0.0465 4.9999 0.0604 172
0.0475 4.9989 0.0604 196
0.0475 5.0019 0.0584 124
0.0485 5.0009 0.0594 129
0.0485 5.0019 0.0584 167
0.0485 5.0019 0.0604 153
0.0465 4.9989 0.0624 153
0.0475 4.9999 0.0644 162
0.0475 5.0019 0.0624 153
0.0485 4.9999 0.0624 162
0.0495 4.9989 0.0624 157
0.0485 5.0009 0.0634 177
0.0485 5.0019 0.0624 157
0.0485 5.0009 0.0654 153
0.0495 5.0009 0.0654 177
0.0465 5.0029 0.0644 162
0.0495 5.0039 0.0634 157
0.0515 4.9999 0.0604 191
0.0515 5.0019 0.0584 153
0.0525 4.9989 0.0594 119
0.0535 4.9999 0.0584 167
0.0525 4.9989 0.0614 200
0.0535 4.9989 0.0604 162
0.0535 4.9999 0.0614 191
0.0515 4.9989 0.0624 153
0.0505 4.9989 0.0644 177
0.0515 4.9989 0.0644 157
0.0515 4.9989 0.0654 134
0.0515 5.0009 0.0624 162
0.0535 4.9999 0.0624 219
0.0535 4.9989 0.0654 138
0.0525 5.0009 0.0634 134
0.0515 5.0029 0.0594 153
0.0505 5.0029 0.0604 205
0.0505 5.0059 0.0604 172
0.0535 5.0029 0.0594 172
0.0505 5.0039 0.0634 153
0.0525 5.0029 0.0654 157
0.0535 5.0029 0.0644 157
0.0535 5.0059 0.0644 181
0.0475 5.0069 0.0624 162
0.0545 4.9999 0.0534 157
0.0545 5.0019 0.0504 200
0.0555 5.0019 0.0504 191
0.0555 5.0019 0.0524 172
0.0565 5.0009 0.0524 191
0.0575 5.0019 0.0524 177
0.0545 4.9999 0.0544 167
0.0555 4.9999 0.0564 157
0.0545 5.0009 0.0564 210
0.0565 5.0009 0.0574 200
0.0575 5.0009 0.0564 191
0.0545 5.0039 0.0504 172
0.0575 5.0039 0.0514 181
0.0565 5.0029 0.0534 157
0.0555 5.0029 0.0544 205
0.0545 5.0029 0.0574 186
0.0575 5.0039 0.0544 148
0.0575 5.0049 0.0554 157
0.0585 4.9999 0.0524 172
0.0585 4.9999 0.0534 205
0.0595 4.9989 0.0534 191
0.0595 4.9999 0.0534 196
0.0585 5.0009 0.0504 210
0.0605 4.9999 0.0504 215
0.0615 4.9989 0.0534 191
0.0605 5.0019 0.0524 162
0.0605 5.0019 0.0534 219
0.0595 4.9989 0.0544 177
0.0595 4.9989 0.0574 162
0.0595 5.0009 0.0554 234
0.0605 4.9999 0.0544 205
0.0615 4.9989 0.0574 186
0.0615 5.0019 0.0544 191
0.0615 5.0019 0.0554 177
0.0605 5.0019 0.0564 186
0.0615 5.0019 0.0574 167
0.0585 5.0059 0.0514 162
0.0605 5.0029 0.0504 215
0.0615 5.0039 0.0514 177
0.0615 5.0049 0.0534 200
0.0585 5.0029 0.0564 248
0.0605 5.0029 0.0554 200
0.0605 5.0039 0.0574 172
0.0545 4.9989 0.0594 243
0.0545 5.0009 0.0584 219
0.0555 5.0009 0.0584 205
0.0555 5.0009 0.0614 157
0.0565 5.0009 0.0594 153
0.0575 5.0009 0.0594 200
0.0575 5.0009 0.0614 162
0.0575 5.0019 0.0614 200
0.0545 5.0009 0.0624 172
0.0545 5.0009 0.0654 181
0.0555 5.0019 0.0644 286
0.0565 4.9999 0.0654 234
0.0565 5.0019 0.0644 172
0.0555 5.0029 0.0594 181
0.0575 5.0029 0.0594 196
0.0545 5.0029 0.0634 234
0.0575 5.0039 0.0644 181
0.0565 5.0049 0.0624 157
0.0585 4.9999 0.0594 157
0.0595 4.9999 0.0594 196
0.0585 4.9989 0.0614 210
0.0595 4.9989 0.0604 181
0.0605 4.9999 0.0584 219
0.0605 4.9999 0.0604 196
0.0615 5.0009 0.0584 205
0.0615 5.0009 0.0604 138
0.0585 4.9999 0.0644 219
0.0585 5.0009 0.0624 234
0.0595 5.0009 0.0624 229
0.0585 5.0009 0.0654 181
0.0595 5.0009 0.0654 200
0.0605 4.9999 0.0654 148
0.0605 5.0019 0.0634 191
0.0615 5.0019 0.0634 167
0.0595 5.0029 0.0614 191
0.0595 5.0029 0.0644 143
0.0605 5.0039 0.0624 148
0.0615 5.0029 0.0654 181
0.0625 4.9939 0.0364 157
0.0635 4.9959 0.0374 138
0.0625 4.9979 0.0344 219
0.0655 4.9959 0.0364 162
0.0645 4.9969 0.0354 172
0.0645 4.9979 0.0374 196
0.0635 4.9959 0.0384 167
0.0625 4.9969 0.0404 153
0.0635 4.9979 0.0404 167
0.0655 4.9959 0.0394 177
0.0655 4.9959 0.0414 153
0.0645 4.9969 0.0394 215
0.0665 4.9979 0.0344 238
0.0675 4.9979 0.0354 291
0.0665 4.9979 0.0374 177
0.0685 4.9979 0.0374 281
0.0695 4.9949 0.0384 243
0.0695 4.9979 0.0394 191
0.0635 4.9969 0.0434 196
0.0645 4.9969 0.0424 157
0.0645 4.9969 0.0434 196
0.0655 4.9969 0.0434 229
0.0645 4.9969 0.0474 196
0.0655 4.9969 0.0464 229
0.0665 4.9969 0.0444 219
0.0685 4.9959 0.0444 153
0.0695 4.9959 0.0454 205
0.0685 4.9969 0.0424 200
0.0665 4.9949 0.0464 162
0.0665 4.9969 0.0494 215
0.0675 4.9979 0.0484 191
0.0705 4.9959 0.0354 148
0.0725 4.9949 0.0354 177
0.0735 4.9949 0.0374 196
0.0735 4.9979 0.0344 181
0.0715 4.9979 0.0404 210
0.0735 4.9959 0.0394 210
0.0725 4.9959 0.0404 219
0.0745 4.9949 0.0354 153
0.0755 4.9949 0.0364 191
0.0745 4.9979 0.0344 205
0.0755 4.9969 0.0354 210
0.0775 4.9959 0.0344 200
0.0765 4.9979 0.0374 200
0.0775 4.9969 0.0364 186
0.0745 4.9949 0.0404 210
0.0745 4.9979 0.0384 205
0.0755 4.9979 0.0384 177
0.0705 4.9959 0.0444 157
0.0705 4.9959 0.0454 234
0.0715 4.9979 0.0444 186
0.0735 4.9969 0.0444 272
0.0725 4.9979 0.0464 224
0.0735 4.9969 0.0494 219
0.0755 4.9929 0.0444 157
0.0745 4.9969 0.0424 200
0.0755 4.9979 0.0434 153
0.0775 4.9949 0.0444 177
0.0765 4.9979 0.0434 200
0.0775 4.9969 0.0434 229
0.0745 4.9979 0.0464 205
0.0755 4.9969 0.0484 215
0.0775 4.9979 0.0464 205
