-0.0327 4.4169 -0.7070 206 198 148 130
-0.0367 4.4149 -0.7050 197 190 148 123
-0.0357 4.4149 -0.7050 197 190 148 151
-0.0357 4.4199 -0.7050 189 182 132 165
-0.0297 4.4069 -0.7040 197 190 148 109
-0.0317 4.4069 -0.7020 197 190 148 123
-0.0317 4.4109 -0.7040 189 186 148 172
-0.0307 4.4109 -0.7020 189 186 148 172
-0.0267 4.4069 -0.7040 197 190 148 130
-0.0257 4.4069 -0.7010 189 190 148 137
-0.0277 4.4109 -0.7040 189 186 148 137
-0.0247 4.4099 -0.7020 197 190 148 151
-0.0317 4.4139 -0.7050 197 186 140 193
-0.0307 4.4179 -0.7050 197 190 140 235
-0.0277 4.4139 -0.7060 197 186 140 193
-0.0277 4.4199 -0.7060 189 182 132 172
-0.0387 4.4069 -0.6950 197 194 123 39
-0.0377 4.4069 -0.6920 165 158 90 53
-0.0397 4.4109 -0.6950 173 166 99 53
-0.0397 4.4099 -0.6920 165 162 99 53
-0.0357 4.4069 -0.6970 206 194 123 46
-0.0337 4.4079 -0.6920 156 154 90 46
-0.0337 4.4099 -0.6970 165 158 90 39
-0.0397 4.4149 -0.6960 206 198 123 53
-0.0377 4.4149 -0.6930 197 194 123 46
-0.0397 4.4189 -0.6960 206 198 123 39
-0.0387 4.4189 -0.6920 165 158 90 53
-0.0357 4.4149 -0.6950 197 190 123 46
-0.0327 4.4149 -0.6930 156 154 90 46
-0.0327 4.4199 -0.6960 189 186 123 60
-0.0357 4.4199 -0.6930 197 190 123 39
-0.0317 4.4069 -0.6970 165 154 90 46
-0.0307 4.4069 -0.6920 189 182 115 39
-0.0307 4.4109 -0.6960 165 154 90 67
-0.0257 4.4069 -0.6970 189 178 115 46
-0.0247 4.4079 -0.6920 156 150 82 60
-0.0247 4.4099 -0.6950 189 174 115 60
-0.0247 4.4109 -0.6930 156 150 82 60
-0.0317 4.4139 -0.6970 197 190 123 67
-0.0287 4.4149 -0.6920 156 150 82 46
-0.0317 4.4179 -0.6960 189 186 123 39
-0.0317 4.4179 -0.6930 156 150 82 53
-0.0267 4.4149 -0.6960 189 178 115 46
-0.0257 4.4149 -0.6930 156 150 82 60
-0.0267 4.4179 -0.6960 156 154 82 46
-0.0267 4.4179 -0.6930 156 154 82 53
-0.0227 4.3989 -0.7000 181 174 123 60
-0.0227 4.4029 -0.7020 181 178 132 95
-0.0187 4.4009 -0.7000 181 174 123 81
-0.0197 4.4049 -0.7010 189 186 140 151
-0.0127 4.3919 -0.6990 165 158 90 88
-0.0107 4.3909 -0.6990 165 162 99 130
-0.0157 4.3989 -0.7000 181 174 123 81
-0.0147 4.4029 -0.6990 181 174 123 109
-0.0107 4.3989 -0.6990 173 170 115 81
-0.0107 4.4039 -0.6990 156 162 99 123
-0.0237 4.3909 -0.6960 140 138 66 53
-0.0227 4.3909 -0.6920 181 186 148 46
-0.0237 4.3939 -0.6950 148 142 66 46
-0.0227 4.3939 -0.6910 189 190 156 60
-0.0187 4.3909 -0.6970 173 178 140 60
-0.0197 4.3919 -0.6930 181 186 148 46
-0.0197 4.3939 -0.6970 148 138 66 67
-0.0167 4.3939 -0.6930 181 186 148 74
-0.0187 4.3959 -0.6890 189 186 156 74
-0.0237 4.3979 -0.6980 173 166 99 60
-0.0227 4.3979 -0.6930 197 186 123 39
-0.0227 4.4049 -0.6960 148 142 66 46
-0.0187 4.3979 -0.6970 148 138 66 74
-0.0197 4.3979 -0.6930 148 142 74 46
-0.0167 4.4029 -0.6950 140 134 74 74
-0.0217 4.3979 -0.6900 173 174 148 88
-0.0157 4.3909 -0.6970 156 150 90 53
-0.0127 4.3919 -0.6930 173 178 123 60
-0.0157 4.3939 -0.6980 173 166 90 46
-0.0137 4.3939 -0.6930 181 186 148 60
-0.0117 4.3909 -0.6980 165 158 90 116
-0.0087 4.3909 -0.6930 173 182 123 74
-0.0117 4.3939 -0.6970 148 146 90 102
-0.0107 4.3939 -0.6930 173 174 140 74
-0.0157 4.3989 -0.6970 140 134 66 88
-0.0157 4.3979 -0.6910 189 190 156 95
-0.0147 4.4029 -0.6950 165 166 99 60
-0.0117 4.3979 -0.6980 165 158 90 95
-0.0097 4.3989 -0.6930 173 182 123 81
-0.0117 4.4039 -0.6980 181 174 123 116
-0.0087 4.4029 -0.6920 206 219 181 102
-0.0147 4.3979 -0.6890 189 186 156 88
-0.0107 4.3979 -0.6900 189 190 156 116
-0.0237 4.4069 -0.7020 189 190 148 130
-0.0227 4.4109 -0.7020 197 190 148 172
-0.0187 4.4079 -0.7040 189 190 148 151
-0.0197 4.4069 -0.7020 189 190 148 151
-0.0177 4.4099 -0.7020 197 190 148 151
-0.0237 4.4149 -0.7050 189 190 140 305
-0.0207 4.4149 -0.7020 189 190 148 284
-0.0237 4.4179 -0.7050 189 190 140 389
-0.0197 4.4139 -0.7050 189 186 140 417
-0.0177 4.4139 -0.7020 189 190 148 151
-0.0197 4.4179 -0.7050 189 190 140 445
-0.0197 4.4199 -0.7010 181 190 140 326
-0.0127 4.4069 -0.7020 189 186 140 158
-0.0147 4.4109 -0.7010 197 194 156 228
-0.0107 4.4079 -0.7020 197 190 148 158
-0.0117 4.4109 -0.7010 197 194 156 165
-0.0157 4.4139 -0.7040 189 190 148 221
-0.0157 4.4139 -0.7020 189 190 148 263
-0.0147 4.4179 -0.7050 189 190 148 501
-0.0147 4.4179 -0.7010 189 194 148 389
-0.0117 4.4139 -0.7000 181 186 148 228
-0.0107 4.4179 -0.7000 181 190 148 312
-0.0237 4.4079 -0.6960 156 150 82 53
-0.0227 4.4099 -0.6960 156 150 82 46
-0.0197 4.4069 -0.6950 181 170 107 46
-0.0197 4.4099 -0.6950 181 170 99 46
-0.0187 4.4099 -0.6930 156 150 90 74
-0.0237 4.4139 -0.6970 189 174 107 39
-0.0237 4.4169 -0.6930 156 150 82 60
-0.0237 4.4199 -0.6950 181 170 99 53
-0.0227 4.4189 -0.6930 156 150 82 46
-0.0167 4.4139 -0.6970 173 170 99 60
-0.0187 4.4149 -0.6930 156 150 90 60
-0.0197 4.4199 -0.6970 189 174 99 60
-0.0167 4.4189 -0.6930 148 146 90 74
-0.0157 4.4069 -0.6950 140 134 74 74
-0.0137 4.4109 -0.6970 132 134 74 95
-0.0107 4.4079 -0.6970 140 154 107 172
-0.0107 4.4079 -0.6920 165 170 115 95
-0.0117 4.4099 -0.6970 148 150 99 102
-0.0107 4.4109 -0.6930 165 170 115 102
-0.0087 4.4069 -0.6900 197 215 173 95
-0.0097 4.4109 -0.6890 197 215 173 137
-0.0147 4.4149 -0.6960 165 162 99 53
-0.0137 4.4149 -0.6930 165 170 107 74
-0.0147 4.4179 -0.6960 148 146 90 88
-0.0147 4.4189 -0.6930 156 158 107 109
-0.0107 4.4149 -0.6980 181 190 148 263
-0.0117 4.4149 -0.6930 165 174 132 144
-0.0107 4.4179 -0.6970 148 166 123 186
-0.0117 4.4189 -0.6910 165 174 132 144
-0.0137 4.4189 -0.6890 148 154 107 116
-0.0087 4.4139 -0.6900 156 182 156 228
-0.0117 4.4199 -0.6890 165 174 132 193
-0.0377 4.4219 -0.7050 189 182 123 151
-0.0367 4.4289 -0.7040 189 182 132 88
-0.0397 4.4289 -0.7010 189 182 132 102
-0.0357 4.4249 -0.7040 189 190 140 102
-0.0347 4.4269 -0.7050 189 182 132 102
-0.0327 4.4289 -0.7020 189 182 132 130
-0.0367 4.4309 -0.7020 189 178 132 81
-0.0397 4.4339 -0.7000 181 178 132 109
-0.0327 4.4319 -0.7010 189 182 132 109
-0.0307 4.4249 -0.7050 189 190 140 116
-0.0307 4.4269 -0.7040 189 182 132 123
-0.0297 4.4289 -0.7020 189 182 140 116
-0.0247 4.4249 -0.7050 189 190 140 151
-0.0267 4.4269 -0.7040 189 182 132 144
-0.0257 4.4269 -0.7020 189 182 132 137
-0.0317 4.4329 -0.7000 189 182 132 116
-0.0267 4.4309 -0.7020 189 182 140 130
-0.0247 4.4339 -0.7000 181 178 132 109
-0.0397 4.4239 -0.6950 165 162 99 39
-0.0367 4.4219 -0.6930 165 154 90 53
-0.0397 4.4269 -0.6960 197 194 123 46
-0.0387 4.4269 -0.6930 197 194 123 39
-0.0357 4.4219 -0.6950 197 194 123 39
-0.0347 4.4239 -0.6920 156 150 82 67
-0.0357 4.4289 -0.6950 197 190 123 39
-0.0357 4.4259 -0.6920 165 154 90 46
-0.0397 4.4309 -0.6960 197 194 123 39
-0.0377 4.4329 -0.6930 165 158 90 53
-0.0397 4.4339 -0.6960 197 190 115 46
-0.0387 4.4339 -0.6930 165 158 90 46
-0.0357 4.4319 -0.6960 165 154 90 60
-0.0347 4.4319 -0.6920 156 154 90 46
-0.0357 4.4339 -0.6970 181 178 132 67
-0.0347 4.4339 -0.6920 181 186 148 67
-0.0367 4.4339 -0.6900 181 190 156 81
-0.0357 4.4339 -0.6900 181 190 156 74
-0.0317 4.4219 -0.6950 189 186 123 60
-0.0297 4.4219 -0.6930 189 178 115 46
-0.0307 4.4289 -0.6970 189 178 115 39
-0.0247 4.4219 -0.6970 189 174 99 46
-0.0247 4.4259 -0.6960 189 174 99 53
-0.0307 4.4309 -0.6950 189 182 115 46
-0.0317 4.4319 -0.6930 156 150 82 39
-0.0307 4.4359 -0.6980 181 170 115 60
-0.0307 4.4339 -0.6910 181 186 148 74
-0.0277 4.4309 -0.6950 189 174 107 39
-0.0247 4.4329 -0.6920 156 146 74 53
-0.0277 4.4339 -0.6980 181 178 132 102
-0.0317 4.4339 -0.6890 181 190 156 81
-0.0257 4.4339 -0.6890 181 190 156 88
-0.0397 4.4389 -0.6970 173 166 107 39
-0.0397 4.4379 -0.6930 197 194 123 46
-0.0397 4.4439 -0.6970 206 198 123 46
-0.0387 4.4429 -0.6930 189 186 115 39
-0.0357 4.4379 -0.6970 165 154 90 46
-0.0347 4.4379 -0.6930 189 186 123 46
-0.0347 4.4429 -0.6970 165 166 123 46
-0.0357 4.4429 -0.6930 181 178 132 46
-0.0397 4.4469 -0.6970 181 166 107 53
-0.0387 4.4469 -0.6920 165 162 99 39
-0.0397 4.4529 -0.6950 181 182 140 60
-0.0397 4.4529 -0.6930 197 190 115 39
-0.0357 4.4469 -0.6970 181 182 140 46
-0.0357 4.4469 -0.6920 165 162 99 53
-0.0357 4.4509 -0.6970 173 174 132 60
-0.0347 4.4529 -0.6930 181 182 140 53
-0.0317 4.4379 -0.6970 173 162 107 74
-0.0317 4.4409 -0.6930 156 150 82 46
-0.0307 4.4419 -0.6970 165 150 99 53
-0.0307 4.4439 -0.6930 189 174 99 46
-0.0277 4.4379 -0.6980 181 170 115 81
-0.0277 4.4389 -0.6930 156 146 82 60
-0.0267 4.4439 -0.6970 165 166 123 53
-0.0267 4.4449 -0.6930 156 146 82 46
-0.0307 4.4479 -0.6960 181 182 140 67
-0.0297 4.4459 -0.6930 181 186 140 46
-0.0317 4.4509 -0.6970 173 174 132 74
-0.0317 4.4509 -0.6930 165 158 90 46
-0.0277 4.4469 -0.6970 156 150 82 39
-0.0267 4.4479 -0.6930 189 190 148 60
-0.0267 4.4509 -0.6960 181 178 140 60
-0.0277 4.4509 -0.6920 156 150 82 53
-0.0237 4.4219 -0.7040 189 190 140 298
-0.0227 4.4259 -0.7040 189 190 140 172
-0.0227 4.4259 -0.7010 189 190 140 172
-0.0187 4.4219 -0.7050 189 186 132 242
-0.0187 4.4249 -0.7020 189 190 140 235
-0.0187 4.4259 -0.7040 189 190 140 193
-0.0197 4.4289 -0.7010 181 182 132 137
-0.0237 4.4309 -0.7010 189 182 140 137
-0.0237 4.4339 -0.7000 181 178 132 102
-0.0187 4.4329 -0.7010 189 186 132 130
-0.0187 4.4339 -0.7000 181 178 132 102
-0.0147 4.4219 -0.7050 189 190 140 466
-0.0157 4.4249 -0.7020 181 190 140 242
-0.0147 4.4269 -0.7040 189 190 140 158
-0.0157 4.4269 -0.7020 189 190 140 172
-0.0117 4.4219 -0.7020 181 190 140 277
-0.0107 4.4269 -0.7040 189 190 140 172
-0.0117 4.4259 -0.7010 181 190 140 193
-0.0157 4.4319 -0.7020 189 186 140 144
-0.0157 4.4359 -0.6990 181 170 123 102
-0.0097 4.4319 -0.7040 189 194 132 130
-0.0117 4.4309 -0.7000 189 182 132 144
-0.0107 4.4339 -0.7000 189 186 123 144
-0.0237 4.4219 -0.6950 156 150 82 53
-0.0227 4.4219 -0.6930 181 170 99 46
-0.0237 4.4269 -0.6970 189 174 99 53
-0.0227 4.4269 -0.6930 156 150 82 53
-0.0187 4.4239 -0.6970 181 178 107 60
-0.0177 4.4219 -0.6930 148 142 82 60
-0.0177 4.4289 -0.6970 181 178 107 60
-0.0197 4.4269 -0.6930 165 162 99 46
-0.0237 4.4309 -0.6970 189 178 107 46
-0.0227 4.4339 -0.6950 156 150 82 53
-0.0237 4.4339 -0.6930 189 174 99 60
-0.0187 4.4309 -0.6970 181 178 107 53
-0.0187 4.4319 -0.6930 148 146 82 67
-0.0177 4.4339 -0.6970 181 174 107 60
-0.0197 4.4339 -0.6920 148 146 82 60
-0.0197 4.4359 -0.6890 181 186 148 88
-0.0157 4.4219 -0.6970 140 134 74 74
-0.0157 4.4219 -0.6930 148 146 90 95
-0.0157 4.4269 -0.6980 181 178 107 74
-0.0157 4.4269 -0.6930 165 170 107 88
-0.0107 4.4219 -0.6970 189 198 148 123
-0.0117 4.4219 -0.6920 165 174 132 151
-0.0117 4.4259 -0.6980 189 198 148 130
-0.0087 4.4259 -0.6930 206 223 189 200
-0.0147 4.4239 -0.6900 148 154 107 74
-0.0127 4.4259 -0.6890 165 174 140 144
-0.0117 4.4239 -0.6900 165 174 132 165
-0.0117 4.4259 -0.6890 165 174 140 179
-0.0157 4.4319 -0.6970 181 174 107 88
-0.0157 4.4339 -0.6980 181 182 132 109
-0.0157 4.4339 -0.6920 165 178 140 95
-0.0117 4.4329 -0.6980 181 182 132 172
-0.0117 4.4339 -0.6980 181 178 132 109
-0.0097 4.4339 -0.6910 156 174 140 109
-0.0147 4.4329 -0.6900 156 158 115 88
-0.0157 4.4339 -0.6890 165 178 140 95
-0.0107 4.4359 -0.6900 165 174 140 81
-0.0177 4.4439 -0.6990 189 190 123 74
-0.0167 4.4519 -0.7010 206 206 140 88
-0.0147 4.4379 -0.6990 189 190 123 88
-0.0127 4.4419 -0.7010 189 194 132 123
-0.0107 4.4379 -0.6990 189 186 123 151
-0.0087 4.4449 -0.7040 206 202 140 144
-0.0117 4.4419 -0.7020 189 194 132 116
-0.0157 4.4469 -0.7000 197 194 132 116
-0.0147 4.4499 -0.7010 206 206 140 88
-0.0107 4.4459 -0.7010 189 194 132 116
-0.0087 4.4519 -0.7040 206 206 140 116
-0.0117 4.4519 -0.7020 206 202 140 137
-0.0237 4.4379 -0.6970 181 170 90 53
-0.0237 4.4379 -0.6930 181 186 148 46
-0.0237 4.4419 -0.6970 173 170 123 53
-0.0227 4.4429 -0.6920 165 154 90 53
-0.0197 4.4379 -0.6960 165 174 132 67
-0.0177 4.4379 -0.6920 148 142 82 53
-0.0187 4.4429 -0.6970 156 146 90 39
-0.0197 4.4429 -0.6920 156 150 82 60
-0.0207 4.4389 -0.6900 181 182 148 46
-0.0227 4.4459 -0.6960 165 166 123 60
-0.0227 4.4479 -0.6930 181 178 140 53
-0.0227 4.4509 -0.6960 173 174 132 46
-0.0197 4.4469 -0.6980 181 182 107 67
-0.0197 4.4469 -0.6930 148 146 82 53
-0.0197 4.4509 -0.6970 173 170 132 53
-0.0187 4.4499 -0.6920 156 150 82 46
-0.0167 4.4509 -0.6890 173 170 115 60
-0.0157 4.4379 -0.6970 189 198 148 109
-0.0137 4.4399 -0.6930 173 178 132 74
-0.0147 4.4419 -0.6960 173 170 123 74
-0.0157 4.4419 -0.6930 173 174 132 60
-0.0107 4.4379 -0.6970 165 170 132 74
-0.0107 4.4379 -0.6930 165 174 132 74
-0.0117 4.4419 -0.6980 165 154 99 60
-0.0157 4.4379 -0.6890 165 158 99 81
-0.0157 4.4489 -0.6980 189 190 123 116
-0.0157 4.4469 -0.6910 156 158 115 67
-0.0157 4.4499 -0.6950 173 174 140 53
-0.0087 4.4459 -0.6950 165 170 123 67
-0.0107 4.4489 -0.6930 173 170 132 67
-0.0117 4.4499 -0.6960 173 170 140 74
-0.0117 4.4519 -0.6930 173 174 132 46
0.0083 4.2609 -0.7600 148 154 74 60
0.0143 4.2589 -0.7600 148 146 66 67
0.0493 4.2609 -0.7610 140 138 66 53
-0.0067 4.2369 -0.7000 58 40 8 123
-0.0017 4.2369 -0.7040 33 12 0 95
-0.0037 4.2349 -0.7000 58 40 8 116
-0.0067 4.2409 -0.7050 33 20 8 109
-0.0077 4.2379 -0.7020 58 40 8 109
-0.0077 4.2449 -0.7060 33 20 8 74
-0.0077 4.2419 -0.7000 58 40 8 137
-0.0037 4.2379 -0.7040 33 16 0 109
-0.0007 4.2379 -0.7000 49 40 8 116
-0.0027 4.2419 -0.7060 33 16 0 123
-0.0037 4.2429 -0.6990 66 61 8 151
0.0003 4.2359 -0.7050 25 8 0 88
0.0063 4.2339 -0.7050 33 8 0 74
0.0043 4.2369 -0.7000 58 40 8 137
0.0003 4.2409 -0.7040 49 40 8 109
0.0033 4.2379 -0.7020 49 40 8 81
0.0003 4.2439 -0.7050 25 8 0 95
0.0003 4.2419 -0.7020 49 40 8 109
0.0053 4.2379 -0.6990 58 40 8 137
0.0053 4.2429 -0.7050 33 8 0 109
0.0053 4.2449 -0.7020 58 40 8 137
-0.0067 4.2409 -0.6950 173 166 90 95
-0.0067 4.2419 -0.6970 107 97 33 158
-0.0027 4.2409 -0.6970 107 97 33 109
-0.0037 4.2429 -0.6970 107 97 33 116
0.0013 4.2359 -0.6980 66 53 8 95
0.0013 4.2429 -0.6970 99 93 33 109
0.0053 4.2429 -0.6970 107 97 41 137
-0.0067 4.2489 -0.7070 33 20 8 137
-0.0077 4.2529 -0.7090 33 20 8 116
-0.0017 4.2489 -0.7070 33 12 0 88
-0.0037 4.2509 -0.7080 33 16 0 130
-0.0077 4.2459 -0.7050 33 20 8 116
-0.0077 4.2489 -0.7020 58 40 8 102
-0.0047 4.2509 -0.7060 33 20 0 130
-0.0037 4.2459 -0.7060 33 16 0 123
-0.0037 4.2459 -0.6990 66 61 8 186
-0.0027 4.2519 -0.7060 33 16 0 88
-0.0037 4.2509 -0.6990 66 61 8 165
-0.0067 4.2569 -0.7120 25 12 0 116
-0.0047 4.2569 -0.7080 33 20 0 109
-0.0057 4.2589 -0.7120 25 12 0 123
0.0003 4.2489 -0.7070 25 8 0 109
0.0013 4.2519 -0.7080 25 8 0 109
0.0043 4.2489 -0.7070 33 8 0 109
0.0053 4.2519 -0.7080 33 8 0 95
0.0003 4.2459 -0.7060 25 8 0 109
0.0003 4.2459 -0.7010 49 40 8 109
0.0003 4.2499 -0.7060 25 8 0 95
0.0003 4.2499 -0.7000 66 53 8 95
0.0053 4.2489 -0.7050 58 40 8 109
0.0053 4.2459 -0.7020 58 40 8 123
0.0053 4.2509 -0.7050 58 40 8 88
0.0053 4.2509 -0.7010 58 40 8 116
0.0033 4.2569 -0.7120 33 8 0 102
0.0013 4.2539 -0.7090 25 8 0 95
0.0003 4.2599 -0.7110 25 8 0 109
0.0043 4.2569 -0.7110 33 12 0 109
0.0053 4.2539 -0.7080 33 8 0 88
0.0053 4.2589 -0.7110 33 8 0 116
0.0073 4.2539 -0.7060 33 8 0 102
-0.0077 4.2459 -0.6970 107 97 33 151
-0.0077 4.2509 -0.6970 107 97 33 158
-0.0037 4.2459 -0.6970 107 97 33 144
-0.0037 4.2509 -0.6970 173 170 99 137
-0.0027 4.2529 -0.6930 197 198 156 46
-0.0077 4.2539 -0.6960 173 166 90 123
-0.0077 4.2559 -0.6930 197 198 148 46
-0.0067 4.2579 -0.6960 197 198 156 53
-0.0027 4.2559 -0.6970 206 198 123 39
-0.0037 4.2589 -0.6970 197 198 156 60
-0.0017 4.2589 -0.6930 197 198 156 39
0.0003 4.2459 -0.6970 99 93 33 137
0.0003 4.2519 -0.6970 99 93 33 186
0.0043 4.2459 -0.6970 107 97 41 116
0.0043 4.2509 -0.6980 189 202 156 46
0.0003 4.2539 -0.6970 165 166 90 102
0.0013 4.2589 -0.6970 165 166 90 88
0.0053 4.2539 -0.6970 173 166 99 137
0.0043 4.2589 -0.6970 173 166 99 137
0.0083 4.2339 -0.7050 33 8 0 102
0.0083 4.2409 -0.7040 58 36 8 130
0.0093 4.2409 -0.6990 58 36 8 109
0.0083 4.2439 -0.7050 33 8 0 109
0.0083 4.2419 -0.7010 58 36 8 109
0.0133 4.2409 -0.7040 25 8 0 95
0.0123 4.2379 -0.6990 49 36 8 137
0.0123 4.2449 -0.7050 25 8 0 95
0.0123 4.2429 -0.7020 49 36 8 102
0.0163 4.2429 -0.7050 25 12 0 102
0.0163 4.2429 -0.6990 66 57 16 137
0.0213 4.2409 -0.7010 58 45 16 116
0.0213 4.2449 -0.7040 58 45 16 130
0.0203 4.2429 -0.7010 58 45 16 102
0.0093 4.2429 -0.6980 66 53 8 137
0.0123 4.2409 -0.6980 74 65 16 158
0.0123 4.2449 -0.6980 74 65 16 165
0.0163 4.2399 -0.6980 66 57 16 102
0.0173 4.2429 -0.6980 66 57 16 116
0.0223 4.2439 -0.6970 90 85 25 123
0.0103 4.2489 -0.7070 25 8 0 116
0.0093 4.2519 -0.7070 33 8 0 116
0.0123 4.2519 -0.7070 25 8 0 88
0.0093 4.2459 -0.7050 33 8 0 95
0.0083 4.2489 -0.7010 58 36 8 95
0.0093 4.2509 -0.7050 58 36 8 137
0.0093 4.2519 -0.7010 58 36 8 109
0.0133 4.2459 -0.7040 49 36 8 102
0.0123 4.2479 -0.7000 49 36 8 151
0.0143 4.2519 -0.7050 25 12 0 74
0.0123 4.2499 -0.7020 49 36 8 109
0.0083 4.2539 -0.7080 33 8 0 116
0.0083 4.2579 -0.7110 33 8 0 130
0.0093 4.2609 -0.7090 33 8 0 116
0.0153 4.2559 -0.7090 25 12 0 137
0.0133 4.2609 -0.7110 25 8 0 102
0.0123 4.2579 -0.7080 25 8 0 81
0.0103 4.2539 -0.7060 25 8 0 88
0.0103 4.2569 -0.6990 99 89 33 109
0.0123 4.2539 -0.7060 25 8 0 102
0.0173 4.2519 -0.7070 25 12 0 88
0.0213 4.2519 -0.7070 25 16 8 109
0.0173 4.2489 -0.7050 25 12 0 109
0.0163 4.2459 -0.7020 49 40 16 123
0.0163 4.2499 -0.7060 25 12 0 123
0.0173 4.2499 -0.7010 49 40 16 123
0.0203 4.2489 -0.7060 25 16 8 95
0.0203 4.2489 -0.7010 58 45 16 109
0.0213 4.2509 -0.7060 25 16 8 95
0.0203 4.2499 -0.6990 74 65 25 116
0.0173 4.2569 -0.7110 25 12 0 123
0.0173 4.2569 -0.7090 25 12 0 116
0.0183 4.2599 -0.7110 25 12 8 116
0.0193 4.2599 -0.7090 25 12 8 137
0.0203 4.2539 -0.7080 25 16 8 116
0.0223 4.2579 -0.7110 33 16 8 116
0.0163 4.2539 -0.7050 49 40 16 81
0.0173 4.2559 -0.6990 90 85 25 137
0.0093 4.2459 -0.6950 173 162 90 137
0.0083 4.2509 -0.6970 99 89 33 130
0.0123 4.2459 -0.6970 107 93 33 186
0.0123 4.2499 -0.6970 165 162 90 109
0.0083 4.2539 -0.6970 173 162 90 151
0.0083 4.2579 -0.6960 173 166 90 109
0.0123 4.2569 -0.6970 165 162 90 144
0.0123 4.2599 -0.6950 173 166 90 88
0.0173 4.2479 -0.6970 90 85 25 123
0.0173 4.2509 -0.6970 90 85 25 109
0.0203 4.2459 -0.6970 90 89 33 109
0.0203 4.2499 -0.6980 90 89 33 109
0.0163 4.2539 -0.6970 90 85 25 144
0.0163 4.2579 -0.6970 165 158 90 137
0.0203 4.2539 -0.6960 156 154 90 123
0.0203 4.2579 -0.6950 197 202 156 81
0.0203 4.2599 -0.6930 197 198 156 60
0.0273 4.2359 -0.6990 49 36 16 81
0.0243 4.2409 -0.7000 58 45 16 123
0.0273 4.2449 -0.7060 25 8 0 95
0.0253 4.2449 -0.7020 58 45 16 109
0.0283 4.2409 -0.7000 49 40 16 102
0.0283 4.2439 -0.7040 49 36 16 95
0.0283 4.2419 -0.7020 49 40 16 88
0.0323 4.2379 -0.6990 49 40 16 102
0.0333 4.2449 -0.7050 33 12 8 95
0.0333 4.2429 -0.7000 58 36 16 95
0.0373 4.2409 -0.7040 33 12 8 60
0.0373 4.2439 -0.7040 41 24 0 81
0.0363 4.2419 -0.7010 49 28 8 95
0.0253 4.2449 -0.6970 90 85 25 95
0.0303 4.2419 -0.6970 74 61 25 130
0.0323 4.2409 -0.6970 74 61 25 109
0.0333 4.2449 -0.6970 90 77 25 123
0.0373 4.2409 -0.6970 74 53 16 102
0.0373 4.2439 -0.6980 74 53 16 109
0.0243 4.2499 -0.7070 33 16 8 95
0.0283 4.2499 -0.7080 25 8 0 88
0.0253 4.2459 -0.7050 33 16 8 116
0.0243 4.2459 -0.7020 58 45 16 116
0.0243 4.2509 -0.7060 33 16 8 102
0.0253 4.2499 -0.7010 58 45 16 109
0.0293 4.2479 -0.7060 25 4 0 102
0.0293 4.2489 -0.7010 49 40 16 116
0.0293 4.2499 -0.7050 49 40 16 95
0.0293 4.2509 -0.7010 49 40 16 123
0.0243 4.2569 -0.7080 33 16 8 102
0.0243 4.2609 -0.7110 33 16 8 102
0.0253 4.2589 -0.7080 33 16 8 95
0.0303 4.2539 -0.7080 25 4 0 109
0.0283 4.2599 -0.7130 25 8 0 151
0.0293 4.2599 -0.7070 25 4 0 95
0.0263 4.2559 -0.7060 33 16 8 109
0.0283 4.2569 -0.7060 25 8 0 95
0.0323 4.2509 -0.7070 25 4 0 88
0.0393 4.2529 -0.7070 33 8 8 102
0.0333 4.2479 -0.7050 33 12 8 116
0.0333 4.2459 -0.7000 58 36 16 102
0.0323 4.2499 -0.7050 25 4 0 109
0.0323 4.2509 -0.7020 49 40 16 130
0.0363 4.2489 -0.7050 33 12 8 88
0.0373 4.2459 -0.7020 41 24 0 116
0.0363 4.2499 -0.7050 33 12 8 74
0.0373 4.2509 -0.7020 41 24 0 81
0.0333 4.2539 -0.7070 33 12 8 102
0.0353 4.2599 -0.7110 33 12 8 123
0.0333 4.2579 -0.7080 33 12 8 95
0.0373 4.2539 -0.7070 33 12 8 95
0.0393 4.2609 -0.7110 33 8 8 158
0.0363 4.2589 -0.7090 33 12 8 123
0.0323 4.2539 -0.7050 49 40 16 88
0.0323 4.2579 -0.7010 74 61 25 109
0.0393 4.2539 -0.7050 49 28 16 116
0.0373 4.2569 -0.6990 90 77 33 109
0.0243 4.2489 -0.6970 90 85 25 151
0.0243 4.2509 -0.6970 156 158 90 116
0.0283 4.2479 -0.6980 66 57 16 116
0.0293 4.2509 -0.6970 90 85 33 102
0.0243 4.2539 -0.6960 189 202 156 46
0.0243 4.2539 -0.6930 173 170 99 81
0.0243 4.2579 -0.6970 156 158 90 130
0.0253 4.2579 -0.6930 181 174 107 81
0.0283 4.2569 -0.6970 156 154 90 130
0.0283 4.2589 -0.6970 156 154 90 88
0.0323 4.2489 -0.6970 90 85 33 137
0.0353 4.2459 -0.6930 181 170 107 74
0.0333 4.2499 -0.6970 90 77 25 137
0.0363 4.2489 -0.6970 90 73 25 95
0.0363 4.2509 -0.6970 90 73 25 109
0.0393 4.2499 -0.6930 181 174 107 102
0.0333 4.2559 -0.6970 90 77 25 137
0.0323 4.2589 -0.6960 189 202 156 67
0.0333 4.2579 -0.6930 189 178 115 74
0.0363 4.2539 -0.6970 90 73 25 88
0.0373 4.2579 -0.6970 181 190 140 67
0.0363 4.2599 -0.6920 189 178 115 60
0.0423 4.2439 -0.7050 33 12 8 102
0.0403 4.2439 -0.6990 66 53 16 81
0.0443 4.2379 -0.7010 58 36 16 88
0.0443 4.2449 -0.7050 25 4 0 102
0.0453 4.2429 -0.6990 82 69 25 123
0.0513 4.2409 -0.7000 49 28 0 123
0.0483 4.2419 -0.7040 49 32 0 95
0.0493 4.2419 -0.7020 41 28 0 102
0.0523 4.2429 -0.7050 33 16 0 81
0.0523 4.2419 -0.7000 49 28 0 109
0.0413 4.2419 -0.6980 66 49 16 88
0.0443 4.2419 -0.6980 74 57 25 102
0.0553 4.2439 -0.6980 58 45 8 102
0.0403 4.2529 -0.7070 33 8 8 102
0.0443 4.2529 -0.7070 25 4 0 109
0.0403 4.2489 -0.7050 49 28 16 95
0.0403 4.2459 -0.7020 49 28 16 88
0.0413 4.2499 -0.7060 33 12 8 109
0.0403 4.2509 -0.7020 49 28 16 95
0.0443 4.2459 -0.7050 25 4 0 95
0.0453 4.2479 -0.7020 49 32 8 116
0.0443 4.2499 -0.7040 58 36 16 88
0.0453 4.2509 -0.7020 49 32 8 123
0.0403 4.2559 -0.7070 33 8 8 102
0.0423 4.2599 -0.7120 25 12 0 137
0.0413 4.2599 -0.7080 33 12 8 109
0.0443 4.2559 -0.7070 25 4 0 109
0.0443 4.2589 -0.7110 25 4 0 130
0.0453 4.2579 -0.7090 25 4 0 102
0.0413 4.2539 -0.7050 58 36 16 95
0.0413 4.2559 -0.7010 66 49 16 88
0.0413 4.2579 -0.6990 90 73 25 186
0.0443 4.2569 -0.7060 25 4 0 109
0.0463 4.2539 -0.6990 82 69 25 123
0.0453 4.2579 -0.7060 25 4 0 81
0.0483 4.2489 -0.7070 33 20 0 67
0.0493 4.2509 -0.7090 33 28 0 67
0.0523 4.2489 -0.7080 33 16 0 53
0.0523 4.2499 -0.7070 33 16 0 88
0.0483 4.2489 -0.7060 33 20 0 74
0.0483 4.2489 -0.7020 49 32 0 116
0.0503 4.2499 -0.7040 41 28 0 95
0.0483 4.2499 -0.6990 74 65 16 165
0.0533 4.2489 -0.7050 58 45 16 95
0.0533 4.2459 -0.7020 58 45 16 88
0.0523 4.2509 -0.7050 33 16 0 88
0.0533 4.2529 -0.6990 58 45 0 137
0.0483 4.2569 -0.7110 33 20 0 67
0.0493 4.2539 -0.7080 41 20 0 81
0.0483 4.2589 -0.7120 33 20 0 60
0.0493 4.2589 -0.7080 41 20 0 116
0.0553 4.2539 -0.7080 25 8 0 81
0.0533 4.2589 -0.7120 41 32 0 46
0.0483 4.2539 -0.7010 49 32 0 123
0.0553 4.2539 -0.7050 49 32 8 95
0.0543 4.2539 -0.7000 148 154 82 46
0.0433 4.2489 -0.6970 90 81 25 144
0.0413 4.2499 -0.6970 90 73 25 186
0.0443 4.2489 -0.6980 74 57 25 116
0.0443 4.2499 -0.6980 90 81 25 158
0.0413 4.2539 -0.6960 165 154 90 109
0.0403 4.2579 -0.6970 165 158 99 95
0.0423 4.2589 -0.6930 181 178 107 109
0.0443 4.2539 -0.6960 165 154 90 116
0.0443 4.2579 -0.6960 181 170 99 102
0.0493 4.2489 -0.6960 156 150 74 123
0.0483 4.2499 -0.6970 99 85 25 165
0.0523 4.2489 -0.6980 58 40 0 144
0.0533 4.2519 -0.6950 181 174 99 151
0.0483 4.2539 -0.6970 99 85 25 144
0.0483 4.2589 -0.6970 165 158 82 123
0.0523 4.2539 -0.6970 156 146 74 137
0.0523 4.2559 -0.6920 181 178 99 67
0.0533 4.2589 -0.6980 82 73 16 144
0.0533 4.2609 -0.6930 189 182 107 81
-0.0017 4.2629 -0.7600 140 138 58 88
-0.0047 4.2739 -0.7600 99 97 25 123
-0.0067 4.2749 -0.7550 99 109 49 263
-0.0037 4.2709 -0.7610 140 138 58 74
-0.0017 4.2729 -0.7560 107 109 33 207
-0.0027 4.2749 -0.7610 99 101 25 109
-0.0027 4.2759 -0.7580 107 109 33 256
-0.0077 4.2729 -0.7480 99 105 41 277
-0.0067 4.2749 -0.7520 99 109 49 305
-0.0067 4.2759 -0.7490 99 105 41 312
-0.0037 4.2759 -0.7520 99 105 41 319
-0.0027 4.2739 -0.7490 99 101 41 291
0.0003 4.2649 -0.7600 148 146 66 81
0.0003 4.2669 -0.7610 148 146 66 67
0.0043 4.2649 -0.7610 140 142 66 60
0.0053 4.2669 -0.7610 140 142 66 60
0.0013 4.2709 -0.7620 148 146 66 67
0.0003 4.2749 -0.7610 99 101 25 116
0.0003 4.2769 -0.7560 99 101 33 270
0.0053 4.2709 -0.7610 140 142 66 53
0.0043 4.2749 -0.7620 140 142 66 137
0.0053 4.2739 -0.7550 99 101 33 270
0.0013 4.2759 -0.7510 99 105 41 305
0.0003 4.2769 -0.7490 99 105 49 326
0.0053 4.2769 -0.7540 99 101 41 228
0.0053 4.2769 -0.7490 99 97 41 340
-0.0047 4.2799 -0.7610 99 97 25 102
-0.0067 4.2789 -0.7580 90 101 33 284
-0.0077 4.2829 -0.7600 99 105 33 165
-0.0077 4.2819 -0.7580 90 101 33 263
-0.0007 4.2789 -0.7600 99 101 25 263
-0.0037 4.2789 -0.7580 99 101 25 249
-0.0027 4.2839 -0.7610 99 101 25 242
-0.0037 4.2819 -0.7560 99 105 41 298
-0.0077 4.2789 -0.7530 99 109 49 368
-0.0067 4.2789 -0.7470 90 105 41 326
-0.0067 4.2819 -0.7510 99 105 41 291
-0.0067 4.2819 -0.7490 99 105 41 277
-0.0037 4.2799 -0.7540 99 105 41 312
-0.0027 4.2789 -0.7490 99 101 41 305
-0.0007 4.2819 -0.7510 99 101 41 382
-0.0037 4.2829 -0.7480 99 101 41 333
-0.0077 4.2869 -0.7600 90 101 33 165
-0.0077 4.2899 -0.7610 99 105 33 193
-0.0047 4.2859 -0.7510 99 105 49 256
0.0013 4.2789 -0.7600 99 101 25 186
0.0003 4.2789 -0.7560 99 101 33 235
0.0003 4.2819 -0.7600 99 101 25 263
0.0003 4.2819 -0.7580 99 101 33 249
0.0053 4.2789 -0.7600 107 105 33 235
0.0043 4.2789 -0.7560 99 101 33 263
0.0043 4.2819 -0.7600 107 105 33 347
0.0053 4.2829 -0.7580 99 101 33 319
0.0003 4.2789 -0.7540 99 105 41 270
0.0003 4.2799 -0.7490 99 105 49 235
0.0003 4.2819 -0.7540 99 105 41 277
0.0003 4.2819 -0.7490 99 105 49 312
0.0043 4.2789 -0.7540 99 101 41 291
0.0043 4.2799 -0.7490 99 97 41 340
0.0053 4.2819 -0.7540 99 97 41 270
0.0043 4.2829 -0.7480 99 97 41 298
0.0053 4.2859 -0.7620 107 105 33 221
0.0103 4.2639 -0.7600 148 150 74 53
0.0093 4.2689 -0.7600 90 101 33 130
0.0153 4.2649 -0.7600 107 101 25 88
0.0083 4.2709 -0.7600 90 101 33 130
0.0083 4.2739 -0.7610 90 101 33 137
0.0083 4.2749 -0.7580 90 101 33 228
0.0133 4.2729 -0.7610 107 105 33 123
0.0123 4.2749 -0.7620 148 146 74 95
0.0123 4.2769 -0.7580 107 105 33 207
0.0093 4.2769 -0.7520 99 101 49 270
0.0103 4.2769 -0.7470 99 101 41 284
0.0143 4.2769 -0.7520 90 97 41 277
0.0183 4.2639 -0.7610 156 146 74 53
0.0173 4.2679 -0.7610 156 146 74 60
0.0163 4.2729 -0.7600 107 101 25 137
0.0163 4.2739 -0.7610 107 101 25 102
0.0173 4.2769 -0.7550 99 101 41 284
0.0203 4.2749 -0.7620 140 134 66 102
0.0233 4.2769 -0.7560 82 85 25 263
0.0233 4.2769 -0.7530 90 97 41 228
0.0083 4.2789 -0.7600 90 101 33 165
0.0083 4.2799 -0.7580 90 101 41 242
0.0093 4.2819 -0.7600 90 101 33 235
0.0093 4.2829 -0.7580 90 101 41 256
0.0123 4.2789 -0.7600 107 105 33 109
0.0123 4.2799 -0.7580 107 109 41 242
0.0123 4.2829 -0.7600 107 105 33 165
0.0123 4.2819 -0.7580 107 109 41 235
0.0093 4.2789 -0.7530 99 101 49 249
0.0083 4.2799 -0.7490 99 101 41 312
0.0083 4.2819 -0.7530 99 101 49 291
0.0093 4.2829 -0.7490 99 101 41 347
0.0123 4.2799 -0.7530 99 105 49 305
0.0123 4.2799 -0.7490 90 93 41 298
0.0123 4.2829 -0.7540 99 105 49 333
0.0123 4.2819 -0.7470 99 101 41 298
0.0093 4.2859 -0.7620 90 101 33 172
0.0143 4.2859 -0.7610 107 101 25 193
0.0113 4.2859 -0.7520 99 97 49 368
0.0153 4.2859 -0.7510 90 93 41 305
0.0143 4.2859 -0.7490 90 93 41 410
0.0173 4.2799 -0.7620 107 105 33 165
0.0163 4.2799 -0.7580 107 101 25 214
0.0173 4.2819 -0.7610 107 105 33 221
0.0163 4.2829 -0.7560 99 105 49 361
0.0213 4.2789 -0.7610 90 89 25 200
0.0203 4.2799 -0.7580 107 101 41 228
0.0203 4.2829 -0.7620 107 101 33 151
0.0203 4.2829 -0.7580 107 101 41 312
0.0173 4.2799 -0.7530 99 101 49 340
0.0173 4.2799 -0.7480 90 97 41 235
0.0163 4.2819 -0.7540 99 101 49 319
0.0163 4.2829 -0.7490 90 97 41 284
0.0203 4.2789 -0.7520 90 97 41 256
0.0213 4.2799 -0.7490 90 97 41 277
0.0203 4.2819 -0.7510 90 97 41 298
0.0203 4.2819 -0.7490 90 97 41 424
0.0163 4.2859 -0.7600 107 101 25 193
0.0233 4.2859 -0.7610 82 89 33 228
0.0213 4.2859 -0.7580 90 93 33 221
0.0163 4.2859 -0.7540 99 101 49 277
0.0173 4.2859 -0.7470 90 97 41 249
0.0213 4.2859 -0.7520 90 97 41 291
-0.0067 4.2729 -0.7450 90 105 41 305
-0.0067 4.2749 -0.7450 82 93 33 312
-0.0067 4.2769 -0.7400 66 69 8 305
-0.0037 4.2769 -0.7460 99 101 41 256
-0.0027 4.2769 -0.7400 66 65 8 284
-0.0077 4.2729 -0.7330 66 65 8 249
-0.0077 4.2739 -0.7360 66 69 8 312
-0.0067 4.2749 -0.7320 66 65 8 270
-0.0027 4.2759 -0.7370 66 65 8 354
-0.0037 4.2769 -0.7330 66 61 8 361
0.0003 4.2769 -0.7460 99 101 49 291
0.0003 4.2739 -0.7390 74 65 16 249
0.0053 4.2749 -0.7450 90 89 33 270
0.0013 4.2739 -0.7360 74 65 16 242
0.0003 4.2749 -0.7330 66 61 16 277
0.0043 4.2759 -0.7370 66 61 16 284
0.0043 4.2769 -0.7310 66 57 16 207
-0.0047 4.2729 -0.7300 66 65 16 249
-0.0077 4.2759 -0.7290 66 61 8 319
-0.0067 4.2749 -0.7240 49 49 0 284
-0.0027 4.2769 -0.7300 58 57 8 305
-0.0027 4.2769 -0.7250 49 45 0 340
-0.0077 4.2729 -0.7170 41 36 0 200
-0.0077 4.2769 -0.7210 41 36 0 305
-0.0077 4.2739 -0.7160 25 12 0 200
-0.0037 4.2719 -0.7160 25 12 0 193
-0.0037 4.2739 -0.7220 49 40 0 228
-0.0037 4.2739 -0.7170 25 12 0 193
0.0013 4.2749 -0.7280 66 53 8 242
0.0003 4.2769 -0.7250 58 45 8 284
0.0043 4.2759 -0.7300 66 57 16 277
0.0053 4.2769 -0.7260 58 49 8 319
0.0033 4.2729 -0.7150 33 8 0 179
0.0003 4.2739 -0.7220 58 40 0 221
0.0013 4.2749 -0.7170 25 8 0 207
0.0073 4.2729 -0.7190 49 28 0 235
0.0043 4.2729 -0.7150 33 12 0 193
0.0053 4.2739 -0.7190 49 32 0 277
0.0043 4.2749 -0.7170 33 12 0 221
-0.0067 4.2789 -0.7460 90 105 41 305
-0.0077 4.2789 -0.7410 74 81 16 361
-0.0077 4.2819 -0.7440 74 81 16 305
-0.0027 4.2789 -0.7450 90 89 33 277
-0.0037 4.2789 -0.7400 66 65 8 396
-0.0037 4.2829 -0.7450 90 89 33 256
-0.0027 4.2819 -0.7390 66 65 8 361
-0.0067 4.2789 -0.7380 66 69 8 200
-0.0077 4.2789 -0.7320 66 65 8 263
-0.0047 4.2819 -0.7370 66 65 16 361
-0.0077 4.2819 -0.7330 66 65 8 284
-0.0037 4.2789 -0.7370 66 61 16 291
-0.0037 4.2789 -0.7310 66 61 8 284
-0.0027 4.2829 -0.7360 66 61 8 368
0.0013 4.2789 -0.7460 99 101 49 291
0.0003 4.2789 -0.7400 74 65 16 298
0.0003 4.2829 -0.7440 82 77 33 200
0.0003 4.2819 -0.7390 66 65 16 305
0.0043 4.2789 -0.7450 90 89 33 319
0.0053 4.2789 -0.7400 66 61 16 305
0.0053 4.2829 -0.7430 74 73 25 284
0.0053 4.2819 -0.7410 66 61 16 235
0.0003 4.2789 -0.7370 66 65 16 298
0.0003 4.2789 -0.7330 66 61 16 263
0.0003 4.2829 -0.7370 74 65 16 312
0.0003 4.2829 -0.7310 66 57 16 312
0.0043 4.2789 -0.7370 66 61 16 277
0.0053 4.2789 -0.7330 66 61 16 291
0.0043 4.2829 -0.7360 66 61 16 319
0.0053 4.2819 -0.7310 66 57 16 333
0.0063 4.2859 -0.7350 66 61 8 277
-0.0067 4.2789 -0.7290 58 57 8 354
-0.0067 4.2789 -0.7260 49 49 0 242
-0.0067 4.2819 -0.7300 66 61 8 312
-0.0077 4.2819 -0.7230 49 45 0 375
-0.0027 4.2789 -0.7290 58 57 8 347
-0.0037 4.2799 -0.7260 49 45 0 277
-0.0037 4.2829 -0.7300 58 57 8 368
-0.0017 4.2819 -0.7250 49 45 0 319
-0.0077 4.2789 -0.7190 41 36 0 214
-0.0057 4.2789 -0.7170 25 12 0 207
-0.0057 4.2819 -0.7200 49 36 8 214
-0.0037 4.2799 -0.7210 49 36 8 403
-0.0037 4.2819 -0.7200 49 36 8 221
0.0003 4.2789 -0.7300 66 57 16 263
0.0003 4.2789 -0.7250 58 45 8 284
0.0003 4.2819 -0.7290 66 57 16 291
0.0003 4.2819 -0.7240 58 40 0 375
0.0053 4.2789 -0.7290 58 49 8 340
0.0053 4.2789 -0.7240 49 36 0 284
0.0043 4.2829 -0.7300 66 57 16 277
0.0053 4.2829 -0.7260 49 45 0 249
0.0003 4.2789 -0.7200 49 32 0 298
0.0003 4.2789 -0.7170 25 8 0 165
0.0003 4.2819 -0.7220 49 32 0 312
0.0053 4.2789 -0.7210 49 32 0 291
0.0043 4.2799 -0.7160 33 12 0 221
0.0073 4.2829 -0.7220 49 28 0 200
0.0103 4.2759 -0.7460 99 101 41 298
0.0083 4.2749 -0.7390 66 69 8 214
0.0113 4.2749 -0.7360 66 65 8 270
0.0173 4.2759 -0.7410 74 77 16 284
0.0233 4.2769 -0.7460 82 89 33 277
0.0223 4.2769 -0.7390 66 69 8 305
0.0173 4.2769 -0.7370 66 65 8 277
0.0093 4.2769 -0.7290 58 53 8 326
0.0113 4.2769 -0.7250 49 49 0 298
0.0133 4.2769 -0.7260 49 53 0 256
0.0083 4.2709 -0.7150 25 8 0 179
0.0083 4.2749 -0.7210 49 28 0 242
0.0093 4.2759 -0.7160 25 8 0 221
0.0123 4.2729 -0.7150 25 12 0 172
0.0123 4.2759 -0.7190 49 32 0 277
0.0123 4.2739 -0.7160 25 12 0 235
0.0163 4.2769 -0.7290 66 61 16 305
0.0193 4.2769 -0.7240 49 45 0 312
0.0233 4.2769 -0.7230 49 40 0 277
0.0163 4.2769 -0.7210 41 32 0 305
0.0173 4.2749 -0.7160 25 12 0 186
0.0223 4.2729 -0.7150 25 12 0 151
0.0203 4.2749 -0.7150 25 12 0 193
0.0093 4.2789 -0.7460 99 101 41 263
0.0093 4.2799 -0.7400 66 69 8 242
0.0083 4.2819 -0.7460 99 101 41 270
0.0083 4.2819 -0.7410 66 69 8 207
0.0123 4.2799 -0.7460 99 101 41 333
0.0123 4.2799 -0.7400 66 69 8 312
0.0133 4.2819 -0.7450 90 93 33 312
0.0123 4.2819 -0.7410 66 69 8 305
0.0083 4.2799 -0.7370 66 65 8 284
0.0083 4.2799 -0.7330 66 65 8 298
0.0093 4.2819 -0.7380 66 69 8 326
0.0083 4.2829 -0.7330 66 65 16 263
0.0123 4.2809 -0.7360 58 61 8 249
0.0123 4.2799 -0.7330 58 61 8 319
0.0123 4.2819 -0.7380 66 65 8 312
0.0123 4.2829 -0.7310 58 61 8 249
0.0083 4.2859 -0.7460 90 89 33 270
0.0153 4.2859 -0.7450 90 93 33 340
0.0123 4.2859 -0.7400 66 69 8 333
0.0143 4.2869 -0.7380 66 61 8 298
0.0153 4.2869 -0.7330 66 65 16 305
0.0173 4.2789 -0.7460 90 97 41 291
0.0163 4.2789 -0.7390 66 69 8 284
0.0163 4.2829 -0.7460 90 97 41 270
0.0163 4.2819 -0.7410 66 69 8 291
0.0203 4.2799 -0.7460 90 97 41 228
0.0213 4.2809 -0.7410 66 69 8 305
0.0213 4.2829 -0.7460 90 97 41 319
0.0213 4.2829 -0.7400 66 69 8 263
0.0173 4.2789 -0.7360 66 65 8 305
0.0173 4.2789 -0.7330 66 65 8 340
0.0163 4.2819 -0.7380 66 69 16 319
0.0173 4.2829 -0.7330 66 65 16 403
0.0203 4.2799 -0.7380 66 65 16 207
0.0203 4.2799 -0.7330 66 61 8 263
0.0203 4.2819 -0.7370 66 65 8 270
0.0203 4.2829 -0.7330 66 61 16 249
0.0173 4.2859 -0.7460 82 89 33 319
0.0203 4.2859 -0.7450 74 73 16 249
0.0233 4.2859 -0.7400 58 61 8 326
0.0173 4.2859 -0.7360 66 65 8 312
0.0163 4.2859 -0.7320 66 65 16 326
0.0213 4.2859 -0.7310 58 53 8 312
0.0083 4.2789 -0.7300 66 61 16 242
0.0093 4.2789 -0.7230 49 45 0 312
0.0083 4.2819 -0.7290 58 53 8 277
0.0083 4.2819 -0.7250 49 49 0 305
0.0123 4.2789 -0.7290 58 61 8 263
0.0123 4.2799 -0.7260 41 45 0 298
0.0123 4.2829 -0.7290 49 53 0 228
0.0133 4.2829 -0.7260 41 45 0 291
0.0093 4.2809 -0.7210 49 28 0 263
0.0113 4.2789 -0.7170 25 8 0 235
0.0103 4.2819 -0.7210 49 32 0 340
0.0123 4.2799 -0.7210 49 32 0 326
0.0143 4.2799 -0.7170 25 12 0 200
0.0153 4.2819 -0.7200 49 32 0 270
0.0113 4.2889 -0.7230 49 32 0 277
0.0143 4.2859 -0.7290 58 53 0 263
0.0123 4.2859 -0.7220 49 32 0 333
0.0163 4.2809 -0.7290 58 57 8 326
0.0163 4.2799 -0.7250 49 49 0 333
0.0163 4.2819 -0.7300 66 61 16 256
0.0173 4.2819 -0.7240 49 45 0 305
0.0203 4.2799 -0.7290 58 53 8 270
0.0213 4.2789 -0.7240 41 36 0 270
0.0203 4.2829 -0.7300 66 61 8 249
0.0203 4.2819 -0.7250 49 45 0 221
0.0163 4.2799 -0.7210 41 32 0 270
0.0163 4.2789 -0.7170 25 12 0 235
0.0173 4.2819 -0.7220 41 32 0 277
0.0213 4.2789 -0.7190 41 32 0 249
0.0213 4.2799 -0.7170 25 12 0 256
0.0213 4.2829 -0.7210 41 32 0 319
0.0173 4.2859 -0.7290 58 57 8 347
0.0213 4.2859 -0.7280 41 40 0 326
0.0163 4.2859 -0.7210 41 32 0 270
0.0223 4.2859 -0.7220 41 32 0 284
0.0243 4.2769 -0.7600 82 89 33 256
0.0243 4.2749 -0.7560 82 85 25 256
0.0293 4.2749 -0.7620 99 105 49 235
0.0313 4.2769 -0.7580 90 105 49 382
0.0253 4.2759 -0.7520 90 97 41 298
0.0293 4.2759 -0.7530 99 105 41 263
0.0293 4.2739 -0.7490 99 109 49 221
0.0343 4.2769 -0.7600 99 105 41 319
0.0323 4.2769 -0.7580 90 109 49 305
0.0323 4.2769 -0.7530 99 105 41 368
0.0333 4.2769 -0.7470 99 109 49 263
0.0253 4.2789 -0.7620 99 97 41 291
0.0243 4.2789 -0.7580 82 85 25 284
0.0273 4.2829 -0.7610 99 105 58 263
0.0273 4.2819 -0.7580 99 109 49 277
0.0293 4.2789 -0.7600 90 105 49 298
0.0293 4.2789 -0.7580 90 109 49 312
0.0293 4.2829 -0.7620 90 105 49 277
0.0283 4.2819 -0.7580 99 109 49 319
0.0243 4.2789 -0.7530 90 97 41 298
0.0243 4.2799 -0.7490 90 93 41 333
0.0243 4.2839 -0.7530 90 97 41 347
0.0253 4.2819 -0.7480 90 93 41 207
0.0293 4.2789 -0.7540 99 105 49 263
0.0293 4.2799 -0.7490 99 105 49 319
0.0283 4.2819 -0.7540 90 101 41 284
0.0283 4.2819 -0.7480 99 105 49 284
0.0243 4.2859 -0.7610 82 89 33 270
0.0253 4.2859 -0.7550 90 101 41 284
0.0293 4.2859 -0.7580 90 109 49 319
0.0293 4.2859 -0.7490 99 105 49 305
0.0333 4.2789 -0.7620 99 105 49 361
0.0323 4.2799 -0.7580 90 109 49 291
0.0333 4.2829 -0.7600 99 105 41 410
0.0333 4.2829 -0.7580 99 105 41 305
0.0363 4.2789 -0.7620 107 109 41 312
0.0363 4.2799 -0.7580 99 105 41 305
0.0373 4.2829 -0.7610 99 105 33 347
0.0373 4.2839 -0.7580 90 105 33 298
0.0323 4.2789 -0.7520 99 105 41 326
0.0323 4.2799 -0.7490 99 105 49 312
0.0323 4.2829 -0.7520 99 109 49 284
0.0323 4.2819 -0.7480 99 105 49 298
0.0363 4.2789 -0.7530 90 105 41 333
0.0363 4.2799 -0.7490 99 105 49 291
0.0363 4.2829 -0.7540 90 105 41 284
0.0363 4.2829 -0.7490 99 105 49 319
0.0383 4.2859 -0.7580 90 105 33 291
0.0343 4.2859 -0.7530 90 109 41 403
0.0333 4.2859 -0.7470 99 105 49 277
0.0363 4.2859 -0.7520 90 109 49 298
0.0473 4.2649 -0.7610 115 125 58 123
0.0403 4.2759 -0.7560 99 109 49 291
0.0473 4.2759 -0.7600 115 125 49 137
0.0473 4.2749 -0.7560 115 121 49 123
0.0403 4.2769 -0.7510 90 105 58 312
0.0413 4.2769 -0.7480 90 105 49 312
0.0473 4.2749 -0.7530 115 121 49 109
0.0443 4.2769 -0.7490 99 109 49 179
0.0493 4.2649 -0.7620 140 138 66 60
0.0483 4.2659 -0.7600 140 138 66 95
0.0493 4.2669 -0.7510 140 138 66 46
0.0493 4.2719 -0.7620 140 138 66 53
0.0483 4.2729 -0.7580 140 142 66 88
0.0493 4.2739 -0.7600 140 142 66 60
0.0483 4.2739 -0.7580 140 142 66 88
0.0493 4.2709 -0.7520 140 142 66 46
0.0483 4.2739 -0.7520 140 138 66 109
0.0483 4.2749 -0.7480 140 134 58 88
0.0403 4.2799 -0.7620 99 109 41 305
0.0403 4.2789 -0.7550 99 113 58 333
0.0403 4.2819 -0.7610 99 109 41 319
0.0403 4.2829 -0.7580 99 109 49 333
0.0453 4.2799 -0.7620 99 109 41 214
0.0443 4.2789 -0.7580 99 105 41 249
0.0443 4.2819 -0.7610 99 109 41 235
0.0443 4.2819 -0.7580 99 105 41 249
0.0403 4.2789 -0.7520 90 105 58 319
0.0403 4.2799 -0.7490 90 105 49 284
0.0403 4.2819 -0.7530 90 109 58 291
0.0403 4.2819 -0.7490 90 105 49 340
0.0443 4.2809 -0.7540 99 109 49 221
0.0443 4.2799 -0.7470 99 109 49 221
0.0443 4.2819 -0.7530 99 109 49 228
0.0453 4.2829 -0.7490 99 105 49 186
0.0413 4.2859 -0.7610 99 109 41 242
0.0413 4.2859 -0.7580 99 109 49 319
0.0453 4.2869 -0.7620 123 130 74 340
0.0443 4.2889 -0.7550 123 125 74 256
0.0463 4.2899 -0.7620 123 130 74 284
0.0463 4.2929 -0.7580 115 125 82 312
0.0423 4.2859 -0.7530 90 109 58 319
0.0413 4.2859 -0.7480 99 109 49 326
0.0443 4.2859 -0.7540 123 125 74 291
0.0473 4.2859 -0.7490 115 117 58 277
0.0463 4.2929 -0.7520 115 121 74 284
0.0453 4.2929 -0.7490 115 113 66 291
0.0483 4.2789 -0.7600 140 142 66 109
0.0493 4.2789 -0.7580 140 142 66 46
0.0493 4.2839 -0.7610 156 154 90 228
0.0483 4.2839 -0.7580 148 146 82 151
0.0523 4.2819 -0.7620 181 178 115 60
0.0553 4.2819 -0.7560 173 170 99 74
0.0493 4.2789 -0.7520 132 138 58 53
0.0483 4.2789 -0.7480 140 134 58 60
0.0483 4.2829 -0.7530 140 138 66 123
0.0493 4.2829 -0.7480 140 134 58 53
0.0523 4.2819 -0.7510 173 170 107 67
0.0523 4.2839 -0.7470 148 150 82 179
0.0493 4.2859 -0.7610 132 134 74 263
0.0483 4.2859 -0.7580 132 130 74 221
0.0483 4.2899 -0.7620 123 130 74 249
0.0483 4.2899 -0.7580 123 130 74 235
0.0533 4.2859 -0.7610 156 154 90 144
0.0533 4.2869 -0.7580 132 130 74 207
0.0523 4.2899 -0.7620 123 130 74 270
0.0533 4.2909 -0.7550 123 130 74 326
0.0493 4.2859 -0.7530 123 125 66 200
0.0483 4.2859 -0.7490 123 121 58 242
0.0483 4.2909 -0.7520 123 125 74 396
0.0493 4.2909 -0.7490 115 117 66 256
0.0533 4.2859 -0.7540 148 146 82 151
0.0533 4.2859 -0.7490 123 125 66 228
0.0523 4.2899 -0.7520 123 125 74 242
0.0243 4.2749 -0.7390 58 61 8 242
0.0293 4.2759 -0.7450 90 101 49 242
0.0243 4.2749 -0.7370 58 61 8 249
0.0283 4.2759 -0.7370 74 69 25 235
0.0293 4.2769 -0.7320 66 61 16 291
0.0333 4.2769 -0.7450 99 105 58 298
0.0343 4.2749 -0.7400 82 81 33 256
0.0373 4.2769 -0.7430 90 97 49 333
0.0393 4.2759 -0.7390 74 85 33 319
0.0253 4.2759 -0.7280 49 45 0 263
0.0293 4.2759 -0.7280 66 61 8 256
0.0283 4.2749 -0.7260 66 61 8 270
0.0253 4.2729 -0.7210 41 32 0 270
0.0273 4.2709 -0.7150 25 8 0 165
0.0253 4.2769 -0.7190 41 32 0 256
0.0243 4.2739 -0.7160 25 12 0 179
0.0293 4.2749 -0.7220 49 45 0 207
0.0293 4.2749 -0.7170 25 12 0 207
0.0353 4.2749 -0.7290 74 65 16 235
0.0343 4.2769 -0.7240 66 53 0 228
0.0363 4.2739 -0.7260 66 61 8 256
0.0323 4.2729 -0.7150 25 12 0 235
0.0333 4.2769 -0.7190 49 36 0 263
0.0323 4.2769 -0.7170 25 12 0 186
0.0393 4.2729 -0.7150 16 0 0 207
0.0383 4.2769 -0.7210 49 36 0 263
0.0373 4.2739 -0.7150 25 12 0 228
0.0243 4.2789 -0.7460 82 89 33 291
0.0243 4.2789 -0.7410 74 77 25 263
0.0243 4.2839 -0.7450 82 89 33 256
0.0253 4.2829 -0.7400 58 61 8 284
0.0283 4.2789 -0.7460 99 105 49 270
0.0293 4.2789 -0.7390 74 77 25 319
0.0283 4.2819 -0.7450 99 105 49 305
0.0293 4.2829 -0.7410 74 77 25 284
0.0253 4.2789 -0.7370 58 61 8 326
0.0253 4.2789 -0.7330 66 61 8 249
0.0243 4.2839 -0.7360 66 61 8 291
0.0243 4.2829 -0.7330 58 57 8 375
0.0293 4.2789 -0.7370 66 65 16 347
0.0283 4.2799 -0.7330 66 65 16 326
0.0293 4.2819 -0.7380 74 73 25 312
0.0293 4.2819 -0.7330 66 61 16 305
0.0263 4.2859 -0.7430 58 61 8 284
0.0273 4.2859 -0.7320 66 65 16 256
0.0293 4.2859 -0.7310 66 65 16 284
0.0323 4.2789 -0.7440 99 101 49 228
0.0333 4.2789 -0.7400 82 81 33 263
0.0333 4.2829 -0.7430 90 101 49 305
0.0323 4.2829 -0.7390 74 73 25 396
0.0363 4.2789 -0.7450 99 109 58 312
0.0363 4.2789 -0.7390 82 85 33 284
0.0363 4.2819 -0.7460 99 105 49 305
0.0363 4.2829 -0.7410 82 85 33 333
0.0333 4.2789 -0.7350 66 65 16 291
0.0323 4.2789 -0.7330 66 61 16 382
0.0323 4.2819 -0.7380 74 73 25 389
0.0323 4.2829 -0.7320 66 61 16 340
0.0363 4.2809 -0.7370 74 69 25 382
0.0363 4.2809 -0.7330 66 65 16 389
0.0363 4.2829 -0.7380 74 73 25 382
0.0363 4.2819 -0.7310 74 65 16 305
0.0333 4.2859 -0.7450 90 101 49 298
0.0393 4.2859 -0.7450 99 109 58 305
0.0383 4.2859 -0.7350 66 65 16 277
0.0253 4.2789 -0.7290 49 45 0 305
0.0253 4.2789 -0.7260 49 40 0 270
0.0243 4.2819 -0.7300 58 49 0 228
0.0243 4.2829 -0.7230 49 40 0 305
0.0293 4.2789 -0.7290 66 65 16 263
0.0283 4.2789 -0.7240 58 53 0 277
0.0283 4.2819 -0.7300 66 65 16 319
0.0293 4.2829 -0.7230 49 45 0 207
0.0253 4.2789 -0.7200 41 32 0 277
0.0243 4.2799 -0.7170 25 12 0 207
0.0253 4.2819 -0.7190 25 12 0 221
0.0293 4.2789 -0.7210 49 40 0 305
0.0293 4.2789 -0.7170 25 12 0 235
0.0283 4.2819 -0.7210 49 36 0 312
0.0283 4.2859 -0.7260 58 53 0 291
0.0243 4.2859 -0.7220 41 32 0 284
0.0323 4.2799 -0.7300 66 65 16 291
0.0323 4.2799 -0.7250 58 53 0 382
0.0323 4.2819 -0.7280 66 61 8 305
0.0323 4.2829 -0.7260 58 53 0 382
0.0363 4.2799 -0.7290 74 65 16 347
0.0373 4.2789 -0.7260 58 53 0 270
0.0373 4.2839 -0.7290 66 57 8 347
0.0363 4.2829 -0.7250 66 53 0 340
0.0333 4.2789 -0.7200 49 36 0 298
0.0333 4.2789 -0.7160 33 12 0 228
0.0323 4.2819 -0.7210 49 40 0 347
0.0363 4.2799 -0.7210 49 36 0 354
0.0383 4.2799 -0.7170 25 12 0 326
0.0363 4.2819 -0.7210 49 36 0 263
0.0383 4.2829 -0.7170 25 12 0 179
0.0343 4.2859 -0.7290 74 61 16 277
0.0353 4.2859 -0.7250 58 49 0 221
0.0413 4.2769 -0.7450 99 109 49 291
0.0473 4.2729 -0.7440 115 113 41 102
0.0473 4.2759 -0.7450 115 117 49 137
0.0443 4.2769 -0.7400 82 89 25 277
0.0403 4.2749 -0.7370 66 69 16 284
0.0403 4.2759 -0.7320 66 73 16 256
0.0463 4.2769 -0.7310 74 69 0 158
0.0483 4.2729 -0.7460 132 134 49 88
0.0483 4.2739 -0.7450 132 134 49 95
0.0493 4.2769 -0.7320 140 125 49 67
0.0433 4.2749 -0.7290 74 73 8 291
0.0473 4.2769 -0.7260 74 65 0 123
0.0403 4.2739 -0.7150 16 0 0 193
0.0463 4.2729 -0.7150 25 8 0 130
0.0473 4.2759 -0.7210 107 105 49 102
0.0443 4.2769 -0.7150 25 12 0 158
0.0483 4.2729 -0.7160 33 20 0 74
0.0493 4.2769 -0.7160 33 20 0 53
0.0403 4.2789 -0.7460 90 109 58 312
0.0403 4.2799 -0.7410 74 85 33 396
0.0403 4.2819 -0.7450 99 109 58 340
0.0403 4.2819 -0.7390 66 69 16 319
0.0453 4.2789 -0.7450 99 109 49 228
0.0443 4.2799 -0.7400 181 174 115 53
0.0443 4.2819 -0.7450 107 109 49 284
0.0443 4.2819 -0.7410 82 89 25 263
0.0403 4.2789 -0.7370 66 73 16 235
0.0413 4.2799 -0.7320 66 69 8 284
0.0403 4.2829 -0.7370 66 73 16 256
0.0403 4.2819 -0.7320 74 69 16 256
0.0443 4.2809 -0.7380 82 85 16 214
0.0443 4.2799 -0.7320 74 73 8 298
0.0443 4.2829 -0.7380 82 85 16 263
0.0453 4.2829 -0.7330 74 73 8 298
0.0413 4.2869 -0.7440 90 101 41 368
0.0413 4.2859 -0.7410 74 85 25 263
0.0443 4.2859 -0.7460 99 93 41 263
0.0463 4.2869 -0.7410 99 93 41 305
0.0473 4.2899 -0.7450 99 97 49 277
0.0453 4.2929 -0.7400 99 89 33 312
0.0413 4.2859 -0.7350 66 69 8 291
0.0423 4.2889 -0.7310 66 69 8 256
0.0443 4.2859 -0.7370 74 77 8 256
0.0453 4.2859 -0.7330 74 73 8 277
0.0453 4.2929 -0.7350 99 85 33 347
0.0453 4.2929 -0.7320 99 85 33 249
0.0483 4.2799 -0.7460 132 134 49 116
0.0503 4.2799 -0.7390 148 138 49 67
0.0483 4.2819 -0.7430 181 178 107 81
0.0493 4.2829 -0.7390 132 130 41 53
0.0523 4.2819 -0.7410 181 178 107 53
0.0483 4.2809 -0.7380 132 130 41 88
0.0493 4.2809 -0.7330 173 166 107 53
0.0483 4.2819 -0.7370 140 130 41 88
0.0483 4.2839 -0.7330 140 125 49 88
0.0523 4.2819 -0.7350 173 166 107 46
0.0483 4.2859 -0.7450 107 105 41 235
0.0483 4.2859 -0.7410 99 89 33 305
0.0493 4.2899 -0.7450 99 93 41 333
0.0483 4.2899 -0.7410 99 93 41 305
0.0523 4.2859 -0.7450 115 113 49 291
0.0533 4.2889 -0.7410 99 89 33 263
0.0523 4.2899 -0.7440 99 93 41 319
0.0543 4.2909 -0.7390 99 93 41 277
0.0483 4.2859 -0.7380 99 89 33 235
0.0483 4.2859 -0.7330 90 85 33 291
0.0483 4.2909 -0.7380 99 81 25 291
0.0493 4.2899 -0.7320 99 89 33 291
0.0533 4.2859 -0.7380 99 89 33 158
0.0523 4.2889 -0.7330 99 85 33 284
0.0533 4.2909 -0.7380 99 89 33 305
0.0523 4.2899 -0.7320 99 89 33 333
0.0413 4.2799 -0.7290 66 65 8 277
0.0403 4.2789 -0.7250 58 57 8 242
0.0403 4.2829 -0.7300 66 69 16 319
0.0403 4.2819 -0.7260 58 57 8 263
0.0443 4.2799 -0.7290 181 174 123 67
0.0443 4.2809 -0.7260 66 61 0 228
0.0443 4.2819 -0.7300 74 73 8 298
0.0453 4.2819 -0.7260 66 57 0 298
0.0403 4.2789 -0.7210 41 28 0 284
0.0413 4.2789 -0.7170 25 12 0 207
0.0403 4.2819 -0.7220 41 28 0 340
0.0443 4.2799 -0.7210 33 24 0 179
0.0443 4.2799 -0.7170 25 12 0 200
0.0443 4.2829 -0.7210 33 24 0 228
0.0403 4.2859 -0.7300 66 69 16 347
0.0413 4.2859 -0.7230 41 32 0 291
0.0443 4.2859 -0.7290 74 73 8 333
0.0443 4.2859 -0.7260 66 61 0 228
0.0453 4.2899 -0.7290 90 73 25 354
0.0453 4.2899 -0.7250 99 81 33 256
0.0433 4.2869 -0.7210 33 24 0 284
0.0443 4.2859 -0.7210 33 24 0 235
0.0473 4.2899 -0.7210 58 49 0 137
0.0493 4.2809 -0.7290 181 178 115 60
0.0493 4.2809 -0.7260 181 174 123 67
0.0483 4.2819 -0.7300 156 154 99 88
0.0493 4.2829 -0.7260 156 150 99 123
0.0523 4.2839 -0.7280 156 154 99 158
0.0533 4.2829 -0.7260 156 150 99 81
0.0483 4.2799 -0.7220 132 121 41 109
0.0493 4.2829 -0.7220 107 105 49 67
0.0523 4.2819 -0.7210 181 170 115 46
0.0483 4.2859 -0.7300 90 85 33 207
0.0483 4.2859 -0.7260 132 117 41 95
0.0483 4.2909 -0.7290 132 117 41 74
0.0483 4.2899 -0.7250 132 121 41 95
0.0523 4.2859 -0.7300 90 85 33 193
0.0533 4.2869 -0.7260 90 77 25 284
0.0523 4.2899 -0.7300 99 85 33 298
0.0523 4.2899 -0.7250 90 77 25 319
0.0483 4.2869 -0.7220 82 69 16 277
0.0493 4.2909 -0.7210 90 69 25 214
0.0513 4.2929 -0.7170 74 49 8 207
0.0523 4.2869 -0.7210 82 69 16 235
0.0533 4.2859 -0.7170 58 40 0 151
0.0543 4.2929 -0.7200 90 69 25 305
0.0533 4.2909 -0.7170 74 49 8 200
0.0363 4.3129 -0.7550 123 125 74 284
0.0383 4.3119 -0.7530 115 117 66 305
0.0383 4.3159 -0.7540 123 121 66 277
0.0373 4.3169 -0.7470 90 85 33 270
0.0373 4.3239 -0.7550 123 125 74 284
0.0393 4.3199 -0.7530 115 117 66 340
0.0393 4.3229 -0.7540 115 117 66 347
0.0453 4.2959 -0.7620 115 130 82 291
0.0453 4.2949 -0.7580 123 134 90 277
0.0443 4.2999 -0.7610 123 130 82 263
0.0453 4.2999 -0.7580 123 134 90 284
0.0433 4.2969 -0.7470 99 97 49 263
0.0443 4.2969 -0.7520 115 125 82 347
0.0473 4.2959 -0.7490 115 121 74 326
0.0463 4.2989 -0.7540 115 125 82 354
0.0463 4.2989 -0.7490 115 113 66 368
0.0423 4.3029 -0.7580 115 125 82 270
0.0433 4.3069 -0.7610 115 121 74 235
0.0403 4.3089 -0.7560 115 117 66 270
0.0453 4.3019 -0.7620 123 130 82 326
0.0453 4.3029 -0.7560 115 125 82 319
0.0443 4.3059 -0.7620 123 121 66 235
0.0453 4.3059 -0.7580 115 121 74 235
0.0433 4.3039 -0.7520 123 130 82 284
0.0423 4.3029 -0.7470 99 101 49 270
0.0413 4.3089 -0.7530 107 113 66 340
0.0413 4.3069 -0.7490 99 97 49 256
0.0453 4.3029 -0.7540 123 125 82 340
0.0443 4.3029 -0.7480 115 117 66 340
0.0453 4.3069 -0.7540 115 121 74 312
0.0443 4.3089 -0.7490 82 85 33 235
0.0493 4.2949 -0.7600 115 125 82 291
0.0483 4.2949 -0.7550 115 125 82 277
0.0483 4.2989 -0.7620 115 130 82 284
